7460843.589185 -685651.654889 -1.201256 1543170774.674588 0.018059 -0.046625
7460843.589370 -685651.655424 -1.201008 1543170774.724688 0.018071 -0.046620
7460843.589558 -685651.655971 -1.200758 1543170774.774784 0.018083 -0.046616
7460843.589747 -685651.656531 -1.200508 1543170774.824839 0.018094 -0.046611
7460843.589980 -685651.657227 -1.200205 1543170774.874875 0.018108 -0.046606
7460843.590130 -685651.657686 -1.200003 1543170774.925051 0.018118 -0.046602
7460843.590327 -685651.658287 -1.199748 1543170774.975061 0.018130 -0.046597
7460843.590526 -685651.658902 -1.199492 1543170775.025083 0.018142 -0.046593
7460843.590770 -685651.659667 -1.199184 1543170775.075147 0.018156 -0.046587
7460843.590973 -685651.660310 -1.198925 1543170775.125191 0.018168 -0.046582
7460843.591178 -685651.660968 -1.198665 1543170775.175251 0.018180 -0.046578
7460843.591385 -685651.661639 -1.198404 1543170775.225306 0.018192 -0.046573
7460843.591638 -685651.662471 -1.198089 1543170775.275333 0.018207 -0.046567
7460843.591847 -685651.663173 -1.197825 1543170775.325358 0.018219 -0.046562
7460843.592060 -685651.663890 -1.197559 1543170775.375466 0.018232 -0.046558
7460843.592275 -685651.664623 -1.197293 1543170775.425536 0.018244 -0.046553
7460843.592539 -685651.665531 -1.196971 1543170775.475599 0.018259 -0.046547
7460843.592758 -685651.666296 -1.196701 1543170775.525684 0.018272 -0.046542
7460843.592979 -685651.667080 -1.196431 1543170775.575639 0.018284 -0.046537
7460843.593202 -685651.667879 -1.196158 1543170775.625840 0.018297 -0.046532
7460843.593428 -685651.668700 -1.195885 1543170775.675852 0.018310 -0.046527
7460843.593607 -685651.669361 -1.195664 1543170775.725919 0.018320 -0.046523
7460843.593838 -685651.670217 -1.195388 1543170775.775975 0.018333 -0.046518
7460843.594071 -685651.671093 -1.195110 1543170775.826032 0.018346 -0.046513
7460843.594357 -685651.672177 -1.194775 1543170775.876116 0.018361 -0.046507
7460843.594595 -685651.673092 -1.194494 1543170775.926173 0.018374 -0.046501
7460843.594835 -685651.674026 -1.194212 1543170775.976249 0.018387 -0.046496
7460843.595077 -685651.674982 -1.193928 1543170776.026349 0.018401 -0.046491
7460843.595373 -685651.676164 -1.193586 1543170776.076371 0.018416 -0.046485
7460843.595621 -685651.677164 -1.193299 1543170776.126423 0.018430 -0.046479
7460843.595869 -685651.678185 -1.193011 1543170776.176547 0.018443 -0.046474
7460843.596122 -685651.679230 -1.192721 1543170776.226547 0.018457 -0.046469
7460843.596432 -685651.680522 -1.192372 1543170776.276691 0.018473 -0.046462
7460843.596690 -685651.681615 -1.192079 1543170776.326767 0.018486 -0.046457
7460843.596952 -685651.682732 -1.191785 1543170776.376837 0.018500 -0.046452
7460843.597217 -685651.683876 -1.191490 1543170776.426874 0.018514 -0.046446
7460843.597542 -685651.685287 -1.191133 1543170776.476921 0.018530 -0.046439
7460843.597813 -685651.686481 -1.190834 1543170776.526975 0.018544 -0.046434
7460843.598087 -685651.687703 -1.190534 1543170776.577030 0.018558 -0.046428
7460843.598364 -685651.688951 -1.190233 1543170776.627081 0.018572 -0.046423
7460843.598703 -685651.690491 -1.189869 1543170776.677138 0.018589 -0.046416
7460843.598986 -685651.691794 -1.189564 1543170776.727185 0.018603 -0.046410
7460843.599272 -685651.693130 -1.189257 1543170776.777244 0.018617 -0.046405
7460843.599562 -685651.694494 -1.188950 1543170776.827332 0.018632 -0.046399
7460843.599918 -685651.696178 -1.188578 1543170776.877365 0.018649 -0.046392
7460843.600214 -685651.697605 -1.188267 1543170776.927367 0.018663 -0.046386
7460843.600514 -685651.699063 -1.187955 1543170776.977422 0.018678 -0.046380
7460843.600753 -685651.700246 -1.187703 1543170777.027545 0.018690 -0.046376
7460843.601126 -685651.702086 -1.187324 1543170777.077604 0.018707 -0.046369
7460843.601437 -685651.703645 -1.187007 1543170777.127686 0.018722 -0.046363
7460843.601752 -685651.705240 -1.186688 1543170777.177705 0.018737 -0.046357
7460843.602073 -685651.706873 -1.186367 1543170777.227732 0.018752 -0.046351
7460843.602467 -685651.708884 -1.185980 1543170777.277853 0.018769 -0.046343
7460843.602798 -685651.710593 -1.185656 1543170777.327921 0.018784 -0.046337
7460843.603135 -685651.712341 -1.185331 1543170777.377895 0.018800 -0.046331
7460843.603477 -685651.714129 -1.185003 1543170777.428036 0.018815 -0.046325
7460843.603896 -685651.716330 -1.184609 1543170777.478113 0.018833 -0.046318
7460843.604245 -685651.718194 -1.184278 1543170777.528125 0.018848 -0.046311
7460843.604664 -685651.720259 -1.183946 1543170777.578249 0.018864 -0.046305
7460843.605287 -685651.722855 -1.183609 1543170777.628338 0.018879 -0.046299
7460843.606453 -685651.727034 -1.183198 1543170777.678361 0.018898 -0.046291
7460843.607963 -685651.731863 -1.182849 1543170777.728479 0.018914 -0.046284
7460843.610028 -685651.738079 -1.182493 1543170777.778497 0.018931 -0.046278
7460843.612236 -685651.744674 -1.182135 1543170777.828535 0.018948 -0.046271
7460843.614678 -685651.752114 -1.181706 1543170777.878592 0.018967 -0.046263
7460843.620905 -685651.767407 -1.181530 1543170777.928611 0.018975 -0.046259
7460843.627193 -685651.782883 -1.181353 1543170777.978621 0.018984 -0.046256
7460843.633053 -685651.797309 -1.181206 1543170778.028694 0.018990 -0.046253
7460843.641044 -685651.817042 -1.180992 1543170778.078668 0.019000 -0.046249
7460843.648617 -685651.835742 -1.180807 1543170778.128763 0.019009 -0.046246
7460843.656692 -685651.855695 -1.180623 1543170778.178761 0.019017 -0.046242
7460843.665291 -685651.876955 -1.180438 1543170778.228765 0.019026 -0.046239
7460843.674348 -685651.899355 -1.180248 1543170778.278745 0.019035 -0.046235
7460843.684981 -685651.925702 -1.180016 1543170778.328793 0.019046 -0.046231
7460843.695584 -685651.951913 -1.179808 1543170778.378798 0.019055 -0.046227
7460843.705219 -685651.977929 -1.179700 1543170778.428819 0.019060 -0.046225
7460843.716361 -685652.008166 -1.179554 1543170778.478891 0.019067 -0.046222
7460843.727955 -685652.038987 -1.179387 1543170778.528927 0.019075 -0.046219
7460843.740540 -685652.072237 -1.179168 1543170778.578975 0.019085 -0.046214
7460843.754194 -685652.108097 -1.178887 1543170778.629033 0.019098 -0.046209
7460843.768842 -685652.146377 -1.178534 1543170778.679080 0.019114 -0.046202
7460843.784975 -685652.188842 -1.178090 1543170778.729163 0.019134 -0.046194
7460843.801679 -685652.232096 -1.177540 1543170778.779224 0.019160 -0.046183
7460843.819365 -685652.277705 -1.176870 1543170778.829292 0.019191 -0.046170
7460843.838703 -685652.327869 -1.176052 1543170778.879367 0.019229 -0.046155
7460843.858864 -685652.378203 -1.174855 1543170778.929459 0.019284 -0.046132
7460843.879965 -685652.430757 -1.173437 1543170778.979517 0.019349 -0.046104
7460843.902131 -685652.485765 -1.171865 1543170779.029560 0.019422 -0.046074
7460843.925457 -685652.543356 -1.170025 1543170779.079686 0.019506 -0.046038
7460843.950322 -685652.604852 -1.167853 1543170779.129702 0.019606 -0.045996
7460843.975963 -685652.667398 -1.165460 1543170779.179829 0.019716 -0.045949
7460844.002693 -685652.732149 -1.162795 1543170779.229784 0.019839 -0.045896
7460844.033743 -685652.797878 -1.159415 1543170779.279859 0.019994 -0.045828
7460844.066968 -685652.866940 -1.155623 1543170779.329848 0.020167 -0.045752
7460844.100183 -685652.936510 -1.151710 1543170779.379927 0.020346 -0.045673
7460844.134414 -685653.007720 -1.147534 1543170779.429963 0.020537 -0.045588
7460844.163141 -685653.072899 -1.143749 1543170779.479983 0.020709 -0.045510
7460844.193158 -685653.140682 -1.139573 1543170779.530010 0.020899 -0.045423
7460844.224332 -685653.209955 -1.135070 1543170779.580070 0.021103 -0.045328
7460844.256654 -685653.280892 -1.130177 1543170779.630105 0.021325 -0.045224
7460844.295126 -685653.358574 -1.123904 1543170779.680130 0.021608 -0.045090
7460844.335698 -685653.438864 -1.116992 1543170779.730147 0.021919 -0.044939
7460844.376310 -685653.518606 -1.109962 1543170779.780236 0.022235 -0.044784
7460844.418955 -685653.594627 -1.102744 1543170779.830319 0.022557 -0.044622
7460844.462480 -685653.671080 -1.095282 1543170779.880297 0.022890 -0.044453
7460844.508234 -685653.748756 -1.087339 1543170779.930364 0.023242 -0.044270
7460844.547099 -685653.825990 -1.079386 1543170779.980448 0.023594 -0.044083
7460844.587129 -685653.904007 -1.071240 1543170780.030503 0.023952 -0.043890
7460844.628152 -685653.982391 -1.062935 1543170780.080547 0.024315 -0.043689
7460844.669965 -685654.061284 -1.054334 1543170780.130582 0.024690 -0.043479
7460844.713241 -685654.140536 -1.045712 1543170780.180679 0.025064 -0.043264
7460844.757625 -685654.220190 -1.036894 1543170780.230700 0.025445 -0.043041
7460844.802858 -685654.299823 -1.027875 1543170780.280728 0.025832 -0.042810
7460844.848810 -685654.379884 -1.018464 1543170780.330761 0.026234 -0.042565
7460844.896038 -685654.459673 -1.009082 1543170780.380870 0.026632 -0.042317
7460844.951756 -685654.539111 -0.999248 1543170780.430908 0.027047 -0.042053
7460845.008612 -685654.618706 -0.989254 1543170780.480952 0.027466 -0.041781
7460845.068164 -685654.699249 -0.978794 1543170780.531248 0.027901 -0.041491
7460845.119631 -685654.779388 -0.968517 1543170780.581100 0.028326 -0.041202
7460845.172464 -685654.859753 -0.958078 1543170780.631046 0.028755 -0.040904
7460845.226535 -685654.940110 -0.947500 1543170780.681094 0.029186 -0.040598
7460845.281544 -685655.020599 -0.936838 1543170780.731135 0.029617 -0.040284
7460845.338144 -685655.100716 -0.926189 1543170780.781227 0.030044 -0.039967
7460845.395673 -685655.180305 -0.915369 1543170780.831247 0.030475 -0.039639
7460845.454367 -685655.259912 -0.904289 1543170780.881290 0.030912 -0.039299
7460845.514157 -685655.339961 -0.892677 1543170780.931329 0.031366 -0.038938
7460845.575540 -685655.419362 -0.880982 1543170780.981370 0.031820 -0.038568
7460845.638055 -685655.498885 -0.868585 1543170781.031423 0.032295 -0.038171
7460845.701925 -685655.578036 -0.855897 1543170781.081443 0.032777 -0.037758
7460845.766742 -685655.657054 -0.842583 1543170781.131485 0.033277 -0.037318
7460845.833303 -685655.735124 -0.829285 1543170781.181533 0.033770 -0.036872
7460845.901246 -685655.813168 -0.815764 1543170781.231569 0.034266 -0.036412
7460845.970793 -685655.890842 -0.801931 1543170781.281603 0.034766 -0.035935
7460846.056988 -685655.963493 -0.787262 1543170781.331596 0.035289 -0.035421
7460846.142861 -685656.036171 -0.772574 1543170781.381676 0.035806 -0.034899
7460846.217663 -685656.113144 -0.757369 1543170781.431817 0.036332 -0.034351
7460846.293828 -685656.189141 -0.741979 1543170781.481798 0.036857 -0.033787
7460846.371069 -685656.264552 -0.726157 1543170781.531765 0.037387 -0.033200
7460846.450286 -685656.338526 -0.710504 1543170781.581812 0.037902 -0.032611
7460846.534450 -685656.408042 -0.694784 1543170781.631896 0.038410 -0.032011
7460846.619775 -685656.476285 -0.679019 1543170781.681920 0.038909 -0.031401
7460846.703302 -685656.547957 -0.662932 1543170781.731971 0.039410 -0.030772
7460846.788389 -685656.617783 -0.647124 1543170781.781972 0.039891 -0.030145
7460846.874662 -685656.686682 -0.631263 1543170781.832077 0.040364 -0.029508
7460846.961856 -685656.754085 -0.615418 1543170781.882118 0.040827 -0.028865
7460847.054974 -685656.813581 -0.598767 1543170781.932154 0.041302 -0.028181
7460847.149248 -685656.872551 -0.582412 1543170781.982200 0.041757 -0.027502
7460847.241155 -685656.936924 -0.565707 1543170782.032207 0.042210 -0.026801
7460847.335476 -685657.000575 -0.548780 1543170782.082288 0.042658 -0.026082
7460847.436565 -685657.054212 -0.531384 1543170782.132364 0.043105 -0.025336
7460847.539432 -685657.107777 -0.514212 1543170782.182395 0.043534 -0.024592
7460847.653062 -685657.156674 -0.496657 1543170782.232444 0.043959 -0.023824
7460847.768840 -685657.204351 -0.478941 1543170782.282545 0.044374 -0.023042
7460847.875355 -685657.253469 -0.461536 1543170782.332567 0.044768 -0.022266
7460847.982776 -685657.301605 -0.444510 1543170782.382633 0.045141 -0.021501
7460848.100604 -685657.343132 -0.426855 1543170782.432667 0.045514 -0.020701
7460848.219264 -685657.382731 -0.409367 1543170782.482652 0.045869 -0.019901
7460848.330190 -685657.423220 -0.391958 1543170782.532697 0.046208 -0.019100
7460848.443056 -685657.463398 -0.374924 1543170782.582732 0.046527 -0.018310
7460848.563786 -685657.498472 -0.357906 1543170782.632769 0.046832 -0.017516
7460848.686161 -685657.531933 -0.340831 1543170782.682854 0.047124 -0.016714
7460848.807236 -685657.565226 -0.323864 1543170782.732856 0.047401 -0.015912
7460848.928183 -685657.597726 -0.307298 1543170782.782894 0.047658 -0.015124
7460849.049131 -685657.624582 -0.290626 1543170782.832966 0.047903 -0.014328
7460849.171070 -685657.649588 -0.274269 1543170782.883024 0.048131 -0.013542
7460849.289245 -685657.672962 -0.257650 1543170782.933058 0.048350 -0.012740
7460849.409036 -685657.696194 -0.241912 1543170782.983098 0.048544 -0.011978
7460849.530941 -685657.728929 -0.226942 1543170783.033187 0.048718 -0.011250
7460849.653810 -685657.759974 -0.212514 1543170783.083245 0.048875 -0.010546
7460849.777808 -685657.789260 -0.198833 1543170783.133354 0.049015 -0.009876
7460849.902318 -685657.816372 -0.185929 1543170783.183456 0.049138 -0.009243
7460850.027105 -685657.841811 -0.173721 1543170783.233526 0.049247 -0.008642
7460850.152569 -685657.865808 -0.161849 1543170783.283589 0.049347 -0.008057
7460850.278795 -685657.888400 -0.150089 1543170783.333700 0.049438 -0.007476
7460850.406298 -685657.909257 -0.138851 1543170783.383814 0.049519 -0.006920
7460850.534957 -685657.929012 -0.127661 1543170783.433897 0.049593 -0.006366
7460850.664844 -685657.947468 -0.116868 1543170783.483990 0.049659 -0.005830
7460850.795748 -685657.964573 -0.106381 1543170783.534110 0.049717 -0.005309
7460850.927028 -685657.980000 -0.096840 1543170783.584183 0.049766 -0.004834
7460851.058557 -685657.993699 -0.088970 1543170783.634259 0.049802 -0.004443
7460851.190062 -685658.006398 -0.081649 1543170783.684339 0.049833 -0.004078
7460851.321692 -685658.018170 -0.073922 1543170783.734421 0.049863 -0.003693
7460851.454286 -685658.028793 -0.066871 1543170783.784576 0.049888 -0.003341
7460851.587377 -685658.038246 -0.060982 1543170783.834630 0.049907 -0.003047
7460851.721298 -685658.046985 -0.055467 1543170783.884726 0.049923 -0.002772
7460851.853164 -685658.045489 -0.049182 1543170783.934834 0.049940 -0.002458
7460851.985275 -685658.044611 -0.043466 1543170783.984917 0.049953 -0.002173
7460852.119444 -685658.050935 -0.038360 1543170784.034957 0.049963 -0.001918
7460852.253597 -685658.056590 -0.033429 1543170784.085038 0.049972 -0.001671
7460852.388123 -685658.061582 -0.028554 1543170784.135175 0.049980 -0.001427
7460852.522818 -685658.065803 -0.023829 1543170784.185176 0.049986 -0.001191
7460852.658792 -685658.069356 -0.019405 1543170784.235255 0.049991 -0.000970
7460852.795509 -685658.072305 -0.014788 1543170784.285312 0.049995 -0.000739
7460852.932720 -685658.074803 -0.009905 1543170784.335362 0.049998 -0.000495
7460853.070628 -685658.076498 -0.004761 1543170784.385478 0.049999 -0.000238
7460853.208138 -685658.077684 0.000702 1543170784.435500 0.050000 0.000035
7460853.345749 -685658.078095 0.006502 1543170784.485559 0.049999 0.000325
7460853.483410 -685658.077953 0.012645 1543170784.535605 0.049996 0.000632
7460853.621235 -685658.076755 0.019046 1543170784.585651 0.049991 0.000952
7460853.759007 -685658.074890 0.025726 1543170784.635678 0.049983 0.001286
7460853.897106 -685658.072076 0.032657 1543170784.685772 0.049973 0.001633
7460854.035355 -685658.068504 0.039811 1543170784.735780 0.049960 0.001990
7460854.173856 -685658.063694 0.047045 1543170784.785795 0.049945 0.002351
7460854.312853 -685658.058200 0.055077 1543170784.835880 0.049924 0.002752
7460854.451683 -685658.051600 0.063004 1543170784.885792 0.049901 0.003148
7460854.589018 -685658.038521 0.070912 1543170784.935812 0.049874 0.003543
7460854.726167 -685658.025043 0.078370 1543170784.985816 0.049847 0.003914
7460854.860727 -685658.005866 0.085813 1543170785.035854 0.049816 0.004285
7460854.995322 -685657.985666 0.092957 1543170785.085861 0.049784 0.004641
7460855.134481 -685657.973448 0.099441 1543170785.135908 0.049753 0.004964
7460855.273986 -685657.960115 0.105590 1543170785.185943 0.049722 0.005270
7460855.413238 -685657.945849 0.111219 1543170785.235998 0.049691 0.005550
7460855.551989 -685657.930852 0.116771 1543170785.285949 0.049659 0.005825
7460855.690872 -685657.915311 0.122909 1543170785.336011 0.049623 0.006130
7460855.829550 -685657.898764 0.128850 1543170785.386050 0.049586 0.006425
7460855.968549 -685657.881333 0.134719 1543170785.436066 0.049547 0.006716
7460856.107394 -685657.863100 0.140498 1543170785.486027 0.049507 0.007002
7460856.246307 -685657.843985 0.146537 1543170785.536068 0.049464 0.007301
7460856.385105 -685657.823918 0.152117 1543170785.586036 0.049423 0.007577
7460856.523975 -685657.803080 0.157429 1543170785.636116 0.049382 0.007839
7460856.662231 -685657.781603 0.162430 1543170785.686060 0.049342 0.008086
7460856.800702 -685657.759126 0.166550 1543170785.736127 0.049308 0.008289
7460856.938910 -685657.736048 0.170457 1543170785.786139 0.049275 0.008482
7460857.076586 -685657.712498 0.174287 1543170785.836082 0.049243 0.008670
7460857.214278 -685657.688401 0.178098 1543170785.886117 0.049209 0.008858
7460857.352192 -685657.663935 0.182434 1543170785.936185 0.049170 0.009071
7460857.489801 -685657.638818 0.186639 1543170785.986208 0.049132 0.009278
7460857.628425 -685657.612787 0.190504 1543170786.036695 0.049095 0.009468
7460857.764665 -685657.586668 0.194305 1543170786.086272 0.049059 0.009654
7460857.902371 -685657.560049 0.199073 1543170786.136299 0.049013 0.009888
7460858.039373 -685657.532784 0.203607 1543170786.186322 0.048967 0.010110
7460858.176172 -685657.504689 0.207401 1543170786.236409 0.048928 0.010296
7460858.312491 -685657.476152 0.211212 1543170786.286411 0.048889 0.010482
7460858.447914 -685657.447333 0.215104 1543170786.336360 0.048848 0.010672
7460858.583155 -685657.417925 0.218991 1543170786.386427 0.048806 0.010862
7460858.717953 -685657.388126 0.222949 1543170786.436369 0.048762 0.011055
7460858.852421 -685657.357836 0.226973 1543170786.486320 0.048718 0.011251
7460858.987072 -685657.327025 0.231129 1543170786.536375 0.048670 0.011454
7460859.121455 -685657.295593 0.235311 1543170786.586391 0.048622 0.011657
7460859.255479 -685657.263733 0.239589 1543170786.636332 0.048572 0.011865
7460859.389524 -685657.231253 0.243950 1543170786.686350 0.048520 0.012077
7460859.523573 -685657.198181 0.248383 1543170786.736328 0.048466 0.012292
7460859.657473 -685657.164513 0.252841 1543170786.786307 0.048410 0.012508
7460859.789920 -685657.129307 0.258176 1543170786.836320 0.048343 0.012766
7460859.921845 -685657.093468 0.263506 1543170786.886338 0.048274 0.013023
7460860.052682 -685657.056965 0.268572 1543170786.936310 0.048208 0.013268
7460860.183798 -685657.019821 0.273527 1543170786.986334 0.048141 0.013506
7460860.316545 -685656.982974 0.278349 1543170787.036352 0.048076 0.013738
7460860.449213 -685656.945447 0.283273 1543170787.086330 0.048007 0.013975
7460860.582160 -685656.907210 0.288139 1543170787.136369 0.047939 0.014208
7460860.715287 -685656.868078 0.293085 1543170787.186381 0.047868 0.014445
7460860.848330 -685656.828383 0.298200 1543170787.236408 0.047793 0.014690
7460860.980970 -685656.788054 0.303450 1543170787.286351 0.047716 0.014941
7460861.113193 -685656.747248 0.308884 1543170787.336419 0.047634 0.015200
7460861.244277 -685656.705856 0.314353 1543170787.386452 0.047550 0.015460
7460861.370467 -685656.660334 0.320691 1543170787.436478 0.047451 0.015761
7460861.496321 -685656.613995 0.327095 1543170787.486487 0.047349 0.016065
7460861.625823 -685656.568907 0.333376 1543170787.536502 0.047247 0.016362
7460861.755662 -685656.522916 0.339568 1543170787.586524 0.047145 0.016654
7460861.885886 -685656.477559 0.345564 1543170787.636552 0.047044 0.016936
7460862.015655 -685656.431484 0.351607 1543170787.686559 0.046941 0.017220
7460862.145524 -685656.384596 0.357645 1543170787.736618 0.046836 0.017503
7460862.275148 -685656.336707 0.363740 1543170787.786672 0.046729 0.017789
7460862.402621 -685656.286398 0.370600 1543170787.836700 0.046606 0.018109
7460862.529997 -685656.235092 0.377610 1543170787.886744 0.046477 0.018435
7460862.658736 -685656.184977 0.384387 1543170787.936838 0.046351 0.018750
7460862.786111 -685656.134155 0.391258 1543170787.986819 0.046222 0.019068
7460862.912838 -685656.082805 0.398311 1543170788.036841 0.046086 0.019393
7460863.038932 -685656.030654 0.405662 1543170788.086815 0.045942 0.019731
7460863.165182 -685655.977819 0.413987 1543170788.136763 0.045776 0.020113
7460863.291394 -685655.923413 0.422508 1543170788.186819 0.045603 0.020502
7460863.417810 -685655.867887 0.431200 1543170788.236783 0.045423 0.020898
7460863.543612 -685655.811295 0.440112 1543170788.286760 0.045235 0.021302
7460863.668691 -685655.754072 0.449524 1543170788.336699 0.045033 0.021727
7460863.792872 -685655.695466 0.458844 1543170788.386717 0.044828 0.022146
7460863.915672 -685655.636306 0.468207 1543170788.436592 0.044619 0.022564
7460864.037830 -685655.576037 0.477583 1543170788.486578 0.044405 0.022982
7460864.159056 -685655.514822 0.486464 1543170788.536526 0.044200 0.023375
7460864.279739 -685655.452161 0.495324 1543170788.586543 0.043991 0.023766
7460864.399742 -685655.388708 0.504266 1543170788.636519 0.043776 0.024158
7460864.519073 -685655.324234 0.513292 1543170788.686458 0.043557 0.024552
7460864.638029 -685655.258820 0.522471 1543170788.736459 0.043329 0.024951
7460864.756186 -685655.192037 0.531694 1543170788.786423 0.043097 0.025350
7460864.874078 -685655.124220 0.541109 1543170788.836461 0.042857 0.025754
7460864.991229 -685655.055343 0.550686 1543170788.886452 0.042608 0.026164
7460865.107968 -685654.985485 0.560466 1543170788.936409 0.042350 0.026579
7460865.223825 -685654.914173 0.570241 1543170788.986367 0.042089 0.026992
7460865.339387 -685654.841680 0.580070 1543170789.036466 0.041821 0.027404
7460865.453899 -685654.768280 0.589835 1543170789.086472 0.041552 0.027811
7460865.567653 -685654.693989 0.599609 1543170789.136493 0.041278 0.028216
7460865.679833 -685654.618743 0.609238 1543170789.186591 0.041004 0.028612
7460865.790643 -685654.543060 0.618819 1543170789.236584 0.040728 0.029004
7460865.900379 -685654.466560 0.628388 1543170789.286649 0.040449 0.029392
7460866.008607 -685654.388607 0.639450 1543170789.336715 0.040121 0.029838
7460866.116142 -685654.309104 0.650287 1543170789.386735 0.039796 0.030271
7460866.223939 -685654.228855 0.660059 1543170789.436799 0.039498 0.030658
7460866.331458 -685654.147145 0.669939 1543170789.486881 0.039193 0.031047
7460866.433298 -685654.058183 0.681315 1543170789.536893 0.038837 0.031491
7460866.535316 -685653.968359 0.692500 1543170789.586952 0.038483 0.031923
7460866.641215 -685653.882394 0.702688 1543170789.636973 0.038155 0.032314
7460866.746289 -685653.795296 0.712921 1543170789.687006 0.037823 0.032702
7460866.850701 -685653.707270 0.723475 1543170789.737082 0.037475 0.033100
7460866.953074 -685653.618620 0.733824 1543170789.787077 0.037131 0.033486
7460867.054214 -685653.529409 0.744159 1543170789.837121 0.036783 0.033868
7460867.153682 -685653.439856 0.754381 1543170789.887165 0.036435 0.034242
7460867.250974 -685653.348247 0.765195 1543170789.937131 0.036062 0.034634
7460867.347537 -685653.255234 0.775820 1543170789.987195 0.035692 0.035015
7460867.443673 -685653.160885 0.786850 1543170790.037246 0.035304 0.035407
7460867.539468 -685653.064758 0.797959 1543170790.087260 0.034908 0.035797
7460867.635464 -685652.968617 0.808662 1543170790.137290 0.034523 0.036168
7460867.730373 -685652.871543 0.819373 1543170790.187338 0.034134 0.036536
7460867.823895 -685652.773772 0.829991 1543170790.237410 0.033744 0.036896
7460867.915732 -685652.675721 0.840573 1543170790.287473 0.033352 0.037251
7460868.006146 -685652.577513 0.851321 1543170790.337441 0.032950 0.037608
7460868.095159 -685652.478094 0.861993 1543170790.387473 0.032546 0.037957
7460868.183543 -685652.377369 0.872355 1543170790.437486 0.032151 0.038292
7460868.271252 -685652.275256 0.882969 1543170790.487457 0.031743 0.038631
7460868.358276 -685652.171575 0.893824 1543170790.537503 0.031322 0.038974
7460868.444830 -685652.066782 0.905036 1543170790.587479 0.030883 0.039322
7460868.530360 -685651.960667 0.916447 1543170790.637508 0.030432 0.039672
7460868.614668 -685651.853556 0.928126 1543170790.687575 0.029967 0.040025
7460868.697567 -685651.746301 0.940089 1543170790.737547 0.029486 0.040381
7460868.778492 -685651.638176 0.952288 1543170790.787610 0.028991 0.040737
7460868.858133 -685651.530135 0.965623 1543170790.837629 0.028445 0.041120
7460868.936035 -685651.421424 0.979246 1543170790.887661 0.027882 0.041504
7460869.012373 -685651.311498 0.993069 1543170790.937664 0.027306 0.041885
7460869.087925 -685651.200440 1.007360 1543170790.987654 0.026705 0.042271
7460869.161870 -685651.087821 1.021618 1543170791.037688 0.026099 0.042648
7460869.234034 -685650.974423 1.035892 1543170791.087683 0.025488 0.043016
7460869.304222 -685650.859909 1.049848 1543170791.137687 0.024885 0.043367
7460869.373042 -685650.745200 1.063980 1543170791.187724 0.024270 0.043715
7460869.439869 -685650.629801 1.078391 1543170791.237725 0.023637 0.044060
7460869.505069 -685650.513343 1.092898 1543170791.287705 0.022996 0.044398
7460869.568580 -685650.395360 1.107347 1543170791.337754 0.022352 0.044726
7460869.630853 -685650.276888 1.122124 1543170791.387796 0.021688 0.045051
7460869.691007 -685650.157527 1.136718 1543170791.437816 0.021029 0.045363
7460869.749387 -685650.037348 1.151284 1543170791.487857 0.020366 0.045664
7460869.805045 -685649.915076 1.165659 1543170791.537896 0.019707 0.045952
7460869.859599 -685649.791520 1.180198 1543170791.587965 0.019037 0.046234
7460869.912971 -685649.668153 1.194612 1543170791.637991 0.018369 0.046504
7460869.964494 -685649.544220 1.208799 1543170791.687960 0.017707 0.046760
7460870.011493 -685649.415781 1.222680 1543170791.738045 0.017056 0.047001
7460870.056863 -685649.286085 1.236391 1543170791.788102 0.016410 0.047230
7460870.088592 -685649.158860 1.249913 1543170791.838133 0.015770 0.047448
7460870.118634 -685649.031038 1.262953 1543170791.888186 0.015150 0.047649
7460870.160921 -685648.903475 1.274891 1543170791.938255 0.014580 0.047827
7460870.202187 -685648.775524 1.286674 1543170791.988319 0.014016 0.047995
7460870.241662 -685648.646534 1.297953 1543170792.038346 0.013474 0.048150
7460870.280003 -685648.515994 1.308903 1543170792.088451 0.012945 0.048295
7460870.315786 -685648.385241 1.319211 1543170792.138500 0.012447 0.048426
7460870.350631 -685648.253685 1.329389 1543170792.188605 0.011953 0.048550
7460870.383711 -685648.121731 1.339039 1543170792.238642 0.011484 0.048663
7460870.415542 -685647.989418 1.348278 1543170792.288757 0.011034 0.048767
7460870.446790 -685647.856081 1.356950 1543170792.338851 0.010611 0.048861
7460870.477185 -685647.722708 1.365550 1543170792.388890 0.010190 0.048951
7460870.506116 -685647.588774 1.373562 1543170792.438999 0.009798 0.049031
7460870.533986 -685647.454594 1.381352 1543170792.489036 0.009416 0.049105
7460870.560227 -685647.319985 1.389085 1543170792.539138 0.009036 0.049177
7460870.585635 -685647.185144 1.396797 1543170792.589231 0.008656 0.049245
7460870.610303 -685647.049716 1.403929 1543170792.639329 0.008305 0.049305
7460870.633923 -685646.914731 1.410724 1543170792.689358 0.007969 0.049361
7460870.655880 -685646.779611 1.417192 1543170792.739409 0.007650 0.049411
7460870.677141 -685646.644007 1.423621 1543170792.789474 0.007332 0.049459
7460870.697683 -685646.508135 1.428886 1543170792.839498 0.007072 0.049497
7460870.717641 -685646.371348 1.433923 1543170792.889560 0.006822 0.049532
7460870.736845 -685646.233696 1.438703 1543170792.939644 0.006585 0.049564
7460870.755616 -685646.095208 1.443340 1543170792.989731 0.006356 0.049594
7460870.773587 -685645.956716 1.447721 1543170793.039829 0.006138 0.049622
7460870.790960 -685645.818143 1.451967 1543170793.089884 0.005927 0.049647
7460870.802705 -685645.680570 1.457229 1543170793.139925 0.005666 0.049678
7460870.814488 -685645.542809 1.462276 1543170793.189943 0.005415 0.049706
7460870.829874 -685645.403867 1.466615 1543170793.239960 0.005200 0.049729
7460870.844711 -685645.264221 1.471064 1543170793.290014 0.004978 0.049752
7460870.859077 -685645.124190 1.475977 1543170793.340094 0.004734 0.049775
7460870.872808 -685644.984891 1.481126 1543170793.390097 0.004478 0.049799
7460870.885679 -685644.845223 1.485831 1543170793.440104 0.004243 0.049820
7460870.897896 -685644.705389 1.490635 1543170793.490131 0.004004 0.049839
7460870.909389 -685644.566187 1.495515 1543170793.540098 0.003761 0.049858
7460870.920363 -685644.426257 1.500666 1543170793.590135 0.003504 0.049877
7460870.930780 -685644.285939 1.506307 1543170793.640124 0.003222 0.049896
7460870.940375 -685644.145760 1.512132 1543170793.690133 0.002932 0.049914
7460870.949179 -685644.005487 1.518187 1543170793.740140 0.002629 0.049931
7460870.957332 -685643.864979 1.524539 1543170793.790189 0.002312 0.049947
7460870.964335 -685643.725058 1.530321 1543170793.840205 0.002023 0.049959
7460870.970511 -685643.585343 1.536184 1543170793.890213 0.001730 0.049970
7460870.975852 -685643.445348 1.542163 1543170793.940307 0.001431 0.049980
7460870.980512 -685643.305820 1.548384 1543170793.990226 0.001121 0.049987
7460870.984335 -685643.165879 1.554809 1543170794.040297 0.000799 0.049994
7460870.987239 -685643.025771 1.561566 1543170794.090357 0.000461 0.049998
7460870.989296 -685642.885308 1.568820 1543170794.140392 0.000099 0.050000
7460870.990557 -685642.744505 1.576546 1543170794.190375 -0.000288 0.049999
7460870.990842 -685642.603329 1.584806 1543170794.240403 -0.000700 0.049995
7460870.989938 -685642.462521 1.593390 1543170794.290317 -0.001130 0.049987
7460870.987672 -685642.321809 1.601846 1543170794.340364 -0.001552 0.049976
7460870.984562 -685642.182562 1.610529 1543170794.390329 -0.001986 0.049961
7460870.980343 -685642.043706 1.619854 1543170794.440310 -0.002452 0.049940
7460870.974829 -685641.905111 1.629271 1543170794.490271 -0.002922 0.049915
7460870.957794 -685641.771057 1.638738 1543170794.540219 -0.003394 0.049885
7460870.937746 -685641.637442 1.648432 1543170794.590187 -0.003878 0.049849
7460870.928267 -685641.498334 1.657982 1543170794.640147 -0.004354 0.049810
7460870.917489 -685641.359718 1.667535 1543170794.690113 -0.004829 0.049766
7460870.895214 -685641.229360 1.677072 1543170794.740130 -0.005304 0.049718
7460870.869985 -685641.100750 1.686836 1543170794.790090 -0.005789 0.049664
7460870.855087 -685640.963384 1.696420 1543170794.840098 -0.006265 0.049606
7460870.838794 -685640.825667 1.706068 1543170794.890051 -0.006743 0.049543
7460870.820471 -685640.686949 1.715641 1543170794.940049 -0.007217 0.049476
7460870.801410 -685640.548532 1.725716 1543170794.990036 -0.007715 0.049401
7460870.781259 -685640.410926 1.735366 1543170795.040026 -0.008191 0.049324
7460870.759850 -685640.273932 1.744998 1543170795.090026 -0.008666 0.049243
7460870.737030 -685640.137750 1.754526 1543170795.140044 -0.009135 0.049158
7460870.713370 -685640.002273 1.764179 1543170795.189997 -0.009609 0.049068
7460870.688080 -685639.866061 1.773968 1543170795.240044 -0.010089 0.048972
7460870.661348 -685639.729573 1.783618 1543170795.290047 -0.010561 0.048872
7460870.622764 -685639.599214 1.793124 1543170795.340074 -0.011025 0.048769
7460870.581107 -685639.469881 1.802646 1543170795.390073 -0.011489 0.048662
7460870.549896 -685639.332659 1.811442 1543170795.440110 -0.011916 0.048559
7460870.517710 -685639.196576 1.819961 1543170795.490082 -0.012330 0.048456
7460870.484173 -685639.061033 1.828163 1543170795.540157 -0.012727 0.048353
7460870.449853 -685638.925829 1.836536 1543170795.590146 -0.013131 0.048245
7460870.414113 -685638.790750 1.844485 1543170795.640208 -0.013514 0.048139
7460870.377173 -685638.655525 1.852422 1543170795.690203 -0.013896 0.048030
7460870.338823 -685638.519711 1.860504 1543170795.740194 -0.014284 0.047916
7460870.299483 -685638.383556 1.868778 1543170795.790243 -0.014680 0.047797
7460870.258465 -685638.248201 1.876828 1543170795.840332 -0.015064 0.047677
7460870.216545 -685638.113795 1.884863 1543170795.890302 -0.015446 0.047554
7460870.173460 -685637.978577 1.892651 1543170795.940367 -0.015816 0.047433
7460870.129608 -685637.843729 1.900710 1543170795.990343 -0.016198 0.047304
7460870.084632 -685637.709529 1.908526 1543170796.040358 -0.016567 0.047175
7460870.038477 -685637.575379 1.916620 1543170796.090308 -0.016949 0.047040
7460869.991190 -685637.441205 1.925363 1543170796.140330 -0.017359 0.046890
7460869.943208 -685637.307874 1.934597 1543170796.190264 -0.017791 0.046728
7460869.893770 -685637.174034 1.944495 1543170796.240310 -0.018253 0.046549
7460869.842946 -685637.040629 1.954810 1543170796.290260 -0.018732 0.046358
7460869.790732 -685636.907762 1.965495 1543170796.340222 -0.019227 0.046156
7460869.737422 -685636.775180 1.976619 1543170796.390191 -0.019739 0.045939
7460869.678249 -685636.652534 1.987874 1543170796.440148 -0.020255 0.045714
7460869.617800 -685636.530999 1.999192 1543170796.490055 -0.020771 0.045482
7460869.559783 -685636.400496 2.010428 1543170796.540067 -0.021280 0.045245
7460869.500644 -685636.270337 2.021914 1543170796.590030 -0.021799 0.044998
7460869.439977 -685636.141228 2.033348 1543170796.639971 -0.022312 0.044746
7460869.377951 -685636.013058 2.044768 1543170796.689972 -0.022821 0.044488
7460869.314622 -685635.886334 2.056092 1543170796.739904 -0.023323 0.044227
7460869.250279 -685635.760150 2.067700 1543170796.789888 -0.023835 0.043953
7460869.184067 -685635.634639 2.078847 1543170796.839922 -0.024324 0.043685
7460869.116371 -685635.509733 2.090055 1543170796.889894 -0.024812 0.043409
7460869.046428 -685635.385031 2.101246 1543170796.939888 -0.025296 0.043129
7460868.975235 -685635.260608 2.112802 1543170796.989938 -0.025793 0.042834
7460868.895097 -685635.140156 2.124375 1543170797.039891 -0.026287 0.042532
7460868.813554 -685635.020607 2.136116 1543170797.089840 -0.026784 0.042221
7460868.735855 -685634.898632 2.148199 1543170797.139822 -0.027292 0.041894
7460868.656492 -685634.777065 2.160675 1543170797.189778 -0.027813 0.041550
7460868.578231 -685634.656836 2.173161 1543170797.239794 -0.028330 0.041200
7460868.498351 -685634.537435 2.185683 1543170797.289758 -0.028843 0.040842
7460868.407279 -685634.429355 2.198038 1543170797.339754 -0.029346 0.040482
7460868.313414 -685634.324269 2.210610 1543170797.389693 -0.029852 0.040110
7460868.229068 -685634.212349 2.223214 1543170797.439651 -0.030355 0.039731
7460868.143068 -685634.101277 2.235878 1543170797.489660 -0.030856 0.039343
7460868.055261 -685633.986464 2.248783 1543170797.539645 -0.031361 0.038942
7460867.966294 -685633.872347 2.262108 1543170797.589624 -0.031877 0.038521
7460867.875672 -685633.759643 2.275216 1543170797.639553 -0.032380 0.038099
7460867.783625 -685633.648213 2.288501 1543170797.689466 -0.032883 0.037666
7460867.687571 -685633.541550 2.301730 1543170797.739526 -0.033378 0.037228
7460867.590509 -685633.437035 2.315402 1543170797.789442 -0.033884 0.036768
7460867.491390 -685633.331951 2.329314 1543170797.839391 -0.034392 0.036293
7460867.390315 -685633.227776 2.343547 1543170797.889329 -0.034905 0.035800
7460867.289758 -685633.126617 2.358172 1543170797.939342 -0.035425 0.035285
7460867.187941 -685633.027340 2.373273 1543170797.989329 -0.035954 0.034746
7460867.084627 -685632.924436 2.388341 1543170798.039254 -0.036473 0.034201
7460866.979814 -685632.823156 2.403496 1543170798.089216 -0.036988 0.033644
7460866.865642 -685632.738996 2.418180 1543170798.139219 -0.037478 0.033097
7460866.748803 -685632.658960 2.433073 1543170798.189260 -0.037966 0.032536
7460866.639575 -685632.562502 2.447837 1543170798.239211 -0.038442 0.031971
7460866.528946 -685632.467686 2.462606 1543170798.289215 -0.038910 0.031400
7460866.418917 -685632.385200 2.478043 1543170798.339149 -0.039391 0.030796
7460866.307816 -685632.305738 2.493892 1543170798.389149 -0.039874 0.030168
7460866.192550 -685632.215749 2.509393 1543170798.439188 -0.040336 0.029546
7460866.076083 -685632.127698 2.524885 1543170798.489187 -0.040789 0.028918
7460865.958285 -685632.041635 2.540066 1543170798.539167 -0.041224 0.028295
7460865.840343 -685631.957386 2.555604 1543170798.589252 -0.041658 0.027651
7460865.721740 -685631.875964 2.570603 1543170798.639282 -0.042068 0.027023
7460865.602755 -685631.796870 2.585787 1543170798.689206 -0.042474 0.026381
7460865.482207 -685631.719356 2.601481 1543170798.739296 -0.042883 0.025712
7460865.359784 -685631.643388 2.617614 1543170798.789338 -0.043292 0.025016
7460865.235989 -685631.569263 2.634756 1543170798.839306 -0.043714 0.024271
7460865.110164 -685631.497498 2.651900 1543170798.889312 -0.044124 0.023518
7460864.983226 -685631.426627 2.669438 1543170798.939328 -0.044530 0.022740
7460864.855929 -685631.358417 2.686933 1543170798.989270 -0.044921 0.021958
7460864.728285 -685631.293277 2.704651 1543170799.039291 -0.045303 0.021159
7460864.600053 -685631.231290 2.721892 1543170799.089347 -0.045661 0.020374
7460864.471156 -685631.171338 2.738840 1543170799.139298 -0.045999 0.019598
7460864.341732 -685631.113032 2.756010 1543170799.189272 -0.046329 0.018805
7460864.210802 -685631.056987 2.772885 1543170799.239357 -0.046640 0.018021
7460864.079247 -685631.003271 2.789630 1543170799.289351 -0.046935 0.017237
7460863.947384 -685630.971308 2.806555 1543170799.339384 -0.047220 0.016440
7460863.814418 -685630.941507 2.823404 1543170799.389388 -0.047490 0.015642
7460863.679848 -685630.894029 2.840065 1543170799.439367 -0.047744 0.014849
7460863.543970 -685630.849325 2.856427 1543170799.489439 -0.047981 0.014066
7460863.407460 -685630.806921 2.871669 1543170799.539454 -0.048190 0.013333
7460863.270753 -685630.766712 2.886860 1543170799.589476 -0.048387 0.012599
7460863.133813 -685630.728284 2.903316 1543170799.639521 -0.048587 0.011801
7460862.996712 -685630.692838 2.919425 1543170799.689464 -0.048771 0.011017
7460862.858823 -685630.659131 2.935574 1543170799.739555 -0.048943 0.010228
7460862.720746 -685630.627713 2.951592 1543170799.789544 -0.049100 0.009443
7460862.582173 -685630.598528 2.966412 1543170799.839500 -0.049235 0.008714
7460862.443298 -685630.571992 2.980953 1543170799.889477 -0.049356 0.007997
7460862.304069 -685630.546962 2.996716 1543170799.939489 -0.049476 0.007219
7460862.164730 -685630.524150 3.012277 1543170799.989507 -0.049583 0.006448
7460862.025302 -685630.503448 3.027400 1543170800.039513 -0.049674 0.005697
7460861.885862 -685630.485451 3.042144 1543170800.089489 -0.049753 0.004964
7460861.750360 -685630.482305 3.056773 1543170800.139539 -0.049820 0.004236
7460861.615623 -685630.481254 3.071152 1543170800.189577 -0.049876 0.003519
7460861.477999 -685630.469073 3.085465 1543170800.239652 -0.049921 0.002805
7460861.341241 -685630.459438 3.099200 1543170800.289658 -0.049955 0.002119
7460861.204301 -685630.451659 3.112563 1543170800.339691 -0.049979 0.001451
7460861.067018 -685630.445687 3.125670 1543170800.389753 -0.049994 0.000796
7460860.929296 -685630.441445 3.138628 1543170800.439776 -0.050000 0.000148
7460860.791253 -685630.439426 -3.132219 1543170800.489846 -0.049998 -0.000469
7460860.653503 -685630.439147 -3.120268 1543170800.539905 -0.049989 -0.001066
7460860.516608 -685630.440452 -3.108891 1543170800.589938 -0.049973 -0.001635
7460860.380548 -685630.443247 -3.097747 1543170800.640009 -0.049952 -0.002192
7460860.245601 -685630.447830 -3.087539 1543170800.690007 -0.049927 -0.002701
7460860.110875 -685630.453945 -3.077975 1543170800.740164 -0.049899 -0.003179
7460859.976515 -685630.461294 -3.068891 1543170800.790175 -0.049868 -0.003632
7460859.845875 -685630.482946 -3.060641 1543170800.840260 -0.049836 -0.004043
7460859.714131 -685630.503846 -3.052671 1543170800.890377 -0.049802 -0.004440
7460859.578830 -685630.515068 -3.045005 1543170800.940423 -0.049767 -0.004822
7460859.443925 -685630.527284 -3.037530 1543170800.990428 -0.049730 -0.005194
7460859.312402 -685630.546231 -3.029270 1543170801.040545 -0.049685 -0.005604
7460859.181188 -685630.565433 -3.021637 1543170801.090601 -0.049641 -0.005983
7460859.052455 -685630.590285 -3.014197 1543170801.140659 -0.049595 -0.006353
7460858.924213 -685630.616043 -3.007288 1543170801.190687 -0.049550 -0.006695
7460858.792372 -685630.633322 -3.001382 1543170801.240746 -0.049509 -0.006988
7460858.661339 -685630.651379 -2.996155 1543170801.290773 -0.049472 -0.007246
7460858.530989 -685630.670303 -2.991599 1543170801.340817 -0.049439 -0.007472
7460858.401450 -685630.689683 -2.987402 1543170801.390873 -0.049407 -0.007679
7460858.276355 -685630.720069 -2.983300 1543170801.440977 -0.049375 -0.007882
7460858.150527 -685630.749306 -2.979576 1543170801.490985 -0.049345 -0.008065
7460858.020646 -685630.770487 -2.976044 1543170801.541087 -0.049316 -0.008240
7460857.890761 -685630.792120 -2.972793 1543170801.591070 -0.049289 -0.008400
7460857.760798 -685630.814357 -2.969959 1543170801.641112 -0.049265 -0.008540
7460857.631000 -685630.836948 -2.967251 1543170801.691203 -0.049242 -0.008673
7460857.501503 -685630.859681 -2.964083 1543170801.741192 -0.049214 -0.008829
7460857.371923 -685630.882855 -2.960866 1543170801.791242 -0.049186 -0.008987
7460857.242641 -685630.906385 -2.957628 1543170801.841277 -0.049156 -0.009146
7460857.113797 -685630.930303 -2.954496 1543170801.891304 -0.049127 -0.009300
7460856.993828 -685630.952565 -2.951161 1543170801.941376 -0.049096 -0.009464
7460856.873050 -685630.975545 -2.948031 1543170801.991364 -0.049066 -0.009618
7460856.747862 -685631.004148 -2.944639 1543170802.041460 -0.049033 -0.009784
7460856.622881 -685631.032021 -2.941554 1543170802.091465 -0.049003 -0.009935
7460856.502289 -685631.061766 -2.938498 1543170802.141427 -0.048972 -0.010085
7460856.381138 -685631.092035 -2.935370 1543170802.191429 -0.048941 -0.010238
7460856.253874 -685631.118682 -2.932328 1543170802.241459 -0.048909 -0.010387
7460856.126833 -685631.145708 -2.929330 1543170802.291448 -0.048878 -0.010534
7460856.000518 -685631.172908 -2.926195 1543170802.341494 -0.048845 -0.010687
7460855.875418 -685631.200215 -2.922951 1543170802.391492 -0.048810 -0.010845
7460855.758668 -685631.226891 -2.919636 1543170802.441466 -0.048773 -0.011007
7460855.641385 -685631.254012 -2.916466 1543170802.491467 -0.048738 -0.011161
7460855.522811 -685631.281104 -2.913330 1543170802.541524 -0.048703 -0.011314
7460855.405177 -685631.308379 -2.910192 1543170802.591447 -0.048667 -0.011467
7460855.284704 -685631.336661 -2.906902 1543170802.641500 -0.048629 -0.011627
7460855.164710 -685631.365286 -2.903757 1543170802.691517 -0.048593 -0.011780
7460855.044317 -685631.394416 -2.900604 1543170802.741508 -0.048555 -0.011933
7460854.923503 -685631.424051 -2.897461 1543170802.791499 -0.048517 -0.012086
7460854.802123 -685631.454322 -2.894592 1543170802.841495 -0.048483 -0.012225
7460854.681099 -685631.484889 -2.891816 1543170802.891449 -0.048448 -0.012359
7460854.569332 -685631.518015 -2.888587 1543170802.941399 -0.048408 -0.012516
7460854.457688 -685631.551524 -2.885337 1543170802.991400 -0.048367 -0.012673
7460854.342110 -685631.585295 -2.882292 1543170803.041380 -0.048328 -0.012820
7460854.226538 -685631.618894 -2.879353 1543170803.091305 -0.048291 -0.012962
7460854.112140 -685631.653753 -2.876343 1543170803.141297 -0.048251 -0.013108
7460853.998967 -685631.688660 -2.873352 1543170803.191287 -0.048212 -0.013252
7460853.881867 -685631.720792 -2.870252 1543170803.241277 -0.048171 -0.013401
7460853.764367 -685631.753458 -2.867251 1543170803.291272 -0.048130 -0.013546
7460853.647231 -685631.786336 -2.864066 1543170803.341275 -0.048087 -0.013699
7460853.530258 -685631.819570 -2.860884 1543170803.391270 -0.048043 -0.013852
7460853.415789 -685631.854429 -2.857646 1543170803.441275 -0.047998 -0.014007
7460853.301975 -685631.889214 -2.854559 1543170803.491242 -0.047954 -0.014155
7460853.186480 -685631.923298 -2.851713 1543170803.541256 -0.047914 -0.014292
7460853.070945 -685631.957756 -2.848807 1543170803.591255 -0.047872 -0.014431
7460852.955556 -685631.992440 -2.845699 1543170803.641220 -0.047827 -0.014580
7460852.840176 -685632.027558 -2.842616 1543170803.691245 -0.047782 -0.014727
7460852.725598 -685632.062841 -2.839604 1543170803.741248 -0.047737 -0.014871
7460852.611905 -685632.098228 -2.836552 1543170803.791214 -0.047692 -0.015017
7460852.498794 -685632.133581 -2.832958 1543170803.841197 -0.047637 -0.015188
7460852.386550 -685632.169178 -2.829409 1543170803.891151 -0.047583 -0.015357
7460852.274734 -685632.205085 -2.826033 1543170803.941043 -0.047531 -0.015517
7460852.162760 -685632.241550 -2.822508 1543170803.990989 -0.047476 -0.015685
7460852.050970 -685632.278121 -2.818593 1543170804.040967 -0.047414 -0.015871
7460851.939178 -685632.315360 -2.814452 1543170804.090946 -0.047348 -0.016067
7460851.827326 -685632.352860 -2.809827 1543170804.140904 -0.047273 -0.016286
7460851.716335 -685632.390664 -2.804781 1543170804.190870 -0.047191 -0.016524
7460851.605614 -685632.428644 -2.799083 1543170804.240812 -0.047096 -0.016793
7460851.495452 -685632.467342 -2.793057 1543170804.290801 -0.046994 -0.017076
7460851.385969 -685632.506233 -2.786510 1543170804.340738 -0.046881 -0.017383
7460851.276990 -685632.545766 -2.779680 1543170804.390720 -0.046761 -0.017703
7460851.168807 -685632.585682 -2.772708 1543170804.440650 -0.046636 -0.018029
7460851.061849 -685632.626226 -2.765712 1543170804.490589 -0.046509 -0.018355
7460850.955434 -685632.667229 -2.758473 1543170804.540536 -0.046375 -0.018691
7460850.850058 -685632.708702 -2.751195 1543170804.590540 -0.046238 -0.019028
7460850.745145 -685632.750644 -2.743676 1543170804.640481 -0.046094 -0.019375
7460850.640699 -685632.793585 -2.736203 1543170804.690439 -0.045947 -0.019719
7460850.536587 -685632.836849 -2.728300 1543170804.740393 -0.045790 -0.020081
7460850.432662 -685632.881388 -2.720517 1543170804.790349 -0.045632 -0.020437
7460850.340231 -685632.934210 -2.712278 1543170804.840323 -0.045463 -0.020812
7460850.245446 -685632.985944 -2.704421 1543170804.890350 -0.045298 -0.021169
7460850.143202 -685633.032388 -2.696834 1543170804.940303 -0.045136 -0.021512
7460850.042094 -685633.079588 -2.689474 1543170804.990233 -0.044976 -0.021844
7460849.941291 -685633.127036 -2.681658 1543170805.040241 -0.044804 -0.022194
7460849.841518 -685633.175481 -2.674216 1543170805.090092 -0.044638 -0.022527
7460849.746908 -685633.229382 -2.666459 1543170805.140089 -0.044462 -0.022873
7460849.652163 -685633.283168 -2.659022 1543170805.190032 -0.044290 -0.023203
7460849.553440 -685633.333548 -2.651735 1543170805.240048 -0.044120 -0.023525
7460849.455675 -685633.384815 -2.644742 1543170805.289979 -0.043954 -0.023833
7460849.358373 -685633.436463 -2.638079 1543170805.339923 -0.043795 -0.024125
7460849.261699 -685633.488904 -2.631520 1543170805.389870 -0.043635 -0.024412
7460849.171361 -685633.549260 -2.623959 1543170805.439848 -0.043450 -0.024741
7460849.080042 -685633.608401 -2.616815 1543170805.489818 -0.043272 -0.025051
7460848.984586 -685633.662461 -2.609934 1543170805.539779 -0.043098 -0.025348
7460848.889585 -685633.717450 -2.603274 1543170805.589756 -0.042929 -0.025635
7460848.803139 -685633.778617 -2.596187 1543170805.639807 -0.042746 -0.025938
7460848.715246 -685633.838910 -2.589485 1543170805.689698 -0.042571 -0.026224
7460848.621627 -685633.895442 -2.582910 1543170805.739710 -0.042398 -0.026503
7460848.528713 -685633.952686 -2.576520 1543170805.789685 -0.042227 -0.026774
7460848.435826 -685634.010457 -2.569971 1543170805.839682 -0.042051 -0.027050
7460848.343669 -685634.069022 -2.563742 1543170805.889662 -0.041882 -0.027311
7460848.251647 -685634.127996 -2.557567 1543170805.939579 -0.041712 -0.027569
7460848.159843 -685634.187912 -2.551682 1543170805.989570 -0.041550 -0.027814
7460848.068152 -685634.248184 -2.545528 1543170806.039557 -0.041378 -0.028069
