7431094.419599 -412229.412375 2.646006 -0.879690 0.475548
7431094.396439 -412229.381030 2.646126 -0.879747 0.475442
7431094.134409 -412229.252834 2.654170 -0.883543 0.468351
7431093.705702 -412229.035236 2.681323 -0.895933 0.444190
7431093.433719 -412228.907147 2.705485 -0.906403 0.422414
7431093.079928 -412228.771607 2.736566 -0.919092 0.394043
7431092.795291 -412228.655336 2.764201 -0.929629 0.368497
7431092.541297 -412228.578580 2.787377 -0.937919 0.346855
7431092.301370 -412228.492708 2.812715 -0.946405 0.322981
7431092.041988 -412228.408577 2.839914 -0.954839 0.297123
7431091.735955 -412228.341368 2.868268 -0.962879 0.269934
7431091.450473 -412228.264909 2.896537 -0.970124 0.242610
7431091.252666 -412228.216997 2.914522 -0.974330 0.225124
7431091.028516 -412228.192205 2.932764 -0.978274 0.207314
7431090.806897 -412228.158551 2.948509 -0.981417 0.191887
7431090.584414 -412228.120491 2.962690 -0.984040 0.177950
7431090.362827 -412228.081645 2.975829 -0.986293 0.165006
7431090.120384 -412228.054956 2.987728 -0.988186 0.153258
7431089.888129 -412228.020695 2.997780 -0.989677 0.143317
7431089.638440 -412227.994632 3.006268 -0.990858 0.134912
7431089.393159 -412227.964331 3.013598 -0.991820 0.127645
7431089.140179 -412227.938691 3.020675 -0.992698 0.120624
7431088.883751 -412227.906900 3.026646 -0.993401 0.114693
7431088.626961 -412227.877424 3.030852 -0.993874 0.110515
7431088.366225 -412227.848798 3.034235 -0.994243 0.107151
7431088.102824 -412227.820746 3.037997 -0.994639 0.103411
7431087.835516 -412227.792648 3.041552 -0.995000 0.099874
7431087.564431 -412227.765228 3.044781 -0.995317 0.096660
7431087.295608 -412227.739412 3.047782 -0.995603 0.093673
7431087.024996 -412227.714125 3.050908 -0.995891 0.090561
7431086.752988 -412227.689654 3.052741 -0.996055 0.088735
7431086.478959 -412227.663408 3.055785 -0.996321 0.085702
7431086.075085 -412227.629732 3.056616 -0.996392 0.084874
7431085.810155 -412227.609249 3.055238 -0.996274 0.086248
7431085.539528 -412227.585301 3.052370 -0.996022 0.089104
7431085.278553 -412227.564180 3.047074 -0.995536 0.094378
7431085.012156 -412227.539067 3.040233 -0.994867 0.101186
7431084.742640 -412227.510633 3.032655 -0.994072 0.108722
7431084.473029 -412227.480070 3.024696 -0.993175 0.116631
7431084.203698 -412227.447352 3.016342 -0.992166 0.124924
7431083.935841 -412227.412583 3.008692 -0.991182 0.132510
7431083.668227 -412227.375767 3.001069 -0.990143 0.140062
7431083.399256 -412227.336646 2.993248 -0.989017 0.147801
7431083.132550 -412227.295714 2.985300 -0.987811 0.155657
7431082.868254 -412227.252940 2.976700 -0.986436 0.164146
7431082.602355 -412227.207521 2.968137 -0.984994 0.172587
7431082.335186 -412227.159558 2.959909 -0.983541 0.180686
7431082.069465 -412227.109715 2.952640 -0.982202 0.187830
7431081.805254 -412227.058352 2.946818 -0.981091 0.193546
7431081.539155 -412227.005204 2.941525 -0.980053 0.198736
7431081.273873 -412226.947944 2.938792 -0.979506 0.201413
7431081.008028 -412226.893453 2.939214 -0.979591 0.201000
7431080.748435 -412226.835317 2.943664 -0.980476 0.196639
7431080.479730 -412226.782428 2.951332 -0.981955 0.189114
7431080.210656 -412226.731974 2.962098 -0.983934 0.178532
7431079.940341 -412226.684681 2.975076 -0.986168 0.165748
7431079.667469 -412226.640913 2.990429 -0.988597 0.150588
7431079.394593 -412226.601830 3.009466 -0.991284 0.131743
7431079.121705 -412226.568318 3.029735 -0.993750 0.111625
7431078.846137 -412226.540482 3.054837 -0.996239 0.086647
7431078.567247 -412226.519654 3.081059 -0.998168 0.060497
7431078.291684 -412226.509119 3.110493 -0.999516 0.031094
7431078.020589 -412226.511707 3.141546 -1.000000 0.000047
7431077.744514 -412226.515910 -3.107411 -0.999416 -0.034175
7431077.472686 -412226.533845 -3.072263 -0.997598 -0.069274
7431077.195198 -412226.557518 -3.036490 -0.994482 -0.104909
7431076.914617 -412226.591626 -3.000644 -0.990083 -0.140483
7431076.631232 -412226.636455 -2.964171 -0.984302 -0.176493
7431076.346686 -412226.692191 -2.932162 -0.978149 -0.207903
7431076.062228 -412226.757552 -2.893908 -0.969483 -0.245160
7431075.779053 -412226.834177 -2.855903 -0.959467 -0.281820
7431075.496120 -412226.922315 -2.823307 -0.949773 -0.312939
7431075.214172 -412227.021729 -2.785421 -0.937239 -0.348688
7431075.074788 -412227.076241 -2.766263 -0.930387 -0.366579
7431074.934399 -412227.132937 -2.747319 -0.923276 -0.384137
7431074.807616 -412227.216426 -2.727608 -0.915525 -0.402261
7431074.680682 -412227.288632 -2.708279 -0.907579 -0.419880
7431074.547864 -412227.360005 -2.689253 -0.899427 -0.437071
7431074.422601 -412227.448220 -2.669582 -0.890656 -0.454678
7431074.291871 -412227.528383 -2.650937 -0.882024 -0.471204
7431074.166559 -412227.614831 -2.632233 -0.873057 -0.487618
7431074.030135 -412227.693230 -2.614498 -0.864272 -0.503024
7431073.895045 -412227.774532 -2.597005 -0.855341 -0.518065
7431073.760997 -412227.858713 -2.579755 -0.846278 -0.532742
7431073.632988 -412227.948592 -2.563073 -0.837273 -0.546785
7431073.504151 -412228.040713 -2.546637 -0.828173 -0.560472
7431073.371028 -412228.132117 -2.531188 -0.819416 -0.573199
7431073.238707 -412228.225976 -2.515883 -0.810547 -0.585673
7431073.106833 -412228.322519 -2.500842 -0.801647 -0.597798
7431072.975711 -412228.421530 -2.486592 -0.793047 -0.609160
7431072.865537 -412228.540293 -2.471704 -0.783891 -0.620899
7431072.745251 -412228.650594 -2.458338 -0.775522 -0.631320
7431072.617203 -412228.757174 -2.446073 -0.767721 -0.640784
7431072.490180 -412228.865386 -2.435048 -0.760609 -0.649210
7431072.362683 -412228.975302 -2.424625 -0.753801 -0.657102
7431072.237874 -412229.088247 -2.414842 -0.747337 -0.664445
7431072.112530 -412229.202365 -2.405310 -0.740970 -0.671538
7431071.987879 -412229.318179 -2.395878 -0.734603 -0.678497
7431071.868013 -412229.438360 -2.386846 -0.728445 -0.685104
7431071.753765 -412229.562160 -2.378161 -0.722468 -0.691405
7431071.629483 -412229.681834 -2.370560 -0.717191 -0.696876
7431071.506018 -412229.803841 -2.363782 -0.712451 -0.701722
7431071.383124 -412229.926931 -2.357921 -0.708326 -0.705885
7431071.259624 -412230.051589 -2.352657 -0.704601 -0.709604
7431071.136628 -412230.177252 -2.347586 -0.700993 -0.713168
7431071.020712 -412230.306532 -2.342393 -0.697281 -0.716798
7431070.897606 -412230.433959 -2.337848 -0.694015 -0.719960
7431070.781711 -412230.561311 -2.333096 -0.690587 -0.723250
7431070.659012 -412230.690924 -2.328533 -0.687279 -0.726393
7431070.536653 -412230.821765 -2.323799 -0.683833 -0.729639
7431070.414203 -412230.953031 -2.318932 -0.680273 -0.732959
7431070.292541 -412231.084771 -2.313712 -0.676439 -0.736499
7431070.171990 -412231.218351 -2.308345 -0.672475 -0.740119
7431070.051276 -412231.351988 -2.302514 -0.668148 -0.744028
7431069.941912 -412231.491700 -2.296187 -0.663428 -0.748240
7431069.823238 -412231.627202 -2.289551 -0.658448 -0.752627
7431069.712412 -412231.763264 -2.282052 -0.652786 -0.757543
7431069.595070 -412231.900467 -2.274084 -0.646729 -0.762720
7431069.478806 -412232.038685 -2.265322 -0.640021 -0.768357
7431069.364392 -412232.178236 -2.256428 -0.633162 -0.774019
7431069.258804 -412232.321205 -2.246926 -0.625778 -0.780001
7431069.147185 -412232.461672 -2.237303 -0.618244 -0.785986
7431069.047790 -412232.603468 -2.226937 -0.610064 -0.792352
7431068.940059 -412232.744942 -2.216108 -0.601447 -0.798913
7431068.843407 -412232.891977 -2.204559 -0.592181 -0.805805
7431068.739875 -412233.034696 -2.192321 -0.582275 -0.812992
7431068.639844 -412233.178683 -2.179143 -0.571511 -0.820594
7431068.543664 -412233.324555 -2.165155 -0.559977 -0.828508
7431068.446849 -412233.469964 -2.150783 -0.548013 -0.836470
7431068.352553 -412233.616131 -2.135922 -0.535522 -0.844521
7431068.289652 -412233.768698 -2.120160 -0.522145 -0.852857
7431068.200782 -412233.916188 -2.104977 -0.509136 -0.860686
7431068.114662 -412234.064121 -2.090943 -0.497008 -0.867746
7431068.049725 -412234.218450 -2.075086 -0.483186 -0.875518
7431067.978630 -412234.369404 -2.059868 -0.469807 -0.882769
7431067.901761 -412234.518195 -2.043740 -0.455509 -0.890231
7431067.827639 -412234.667860 -2.026872 -0.440429 -0.897788
7431067.755787 -412234.817677 -2.008345 -0.423720 -0.905793
7431067.687918 -412234.968486 -1.988719 -0.405863 -0.913934
7431067.624340 -412235.120427 -1.968044 -0.386882 -0.922129
7431067.562356 -412235.272265 -1.946815 -0.367221 -0.930134
7431067.505576 -412235.424895 -1.925442 -0.347258 -0.937769
7431067.472469 -412235.586637 -1.903869 -0.326948 -0.945042
7431067.441423 -412235.749097 -1.882243 -0.306436 -0.951891
7431067.393937 -412235.901880 -1.861087 -0.286231 -0.958161
7431067.368708 -412236.056734 -1.839256 -0.265246 -0.964181
7431067.342137 -412236.198311 -1.816985 -0.243709 -0.969848
7431067.305283 -412236.351188 -1.794187 -0.221538 -0.975152
7431067.272783 -412236.504336 -1.770510 -0.198389 -0.980123
7431067.246835 -412236.658930 -1.746308 -0.174612 -0.984637
7431067.230952 -412236.816059 -1.721601 -0.150234 -0.988651
7431067.211087 -412236.970491 -1.696561 -0.125433 -0.992102
7431067.206737 -412237.129117 -1.671253 -0.100288 -0.994958
7431067.214798 -412237.291407 -1.645242 -0.074377 -0.997230
7431067.221039 -412237.442154 -1.619638 -0.048823 -0.998807
7431067.232625 -412237.594135 -1.593594 -0.022796 -0.999740
7431067.231737 -412237.747639 -1.567576 0.003220 -0.999995
7431067.235170 -412237.900895 -1.540940 0.029852 -0.999554
7431067.255760 -412238.057900 -1.513343 0.057421 -0.998350
7431067.299920 -412238.203718 -1.484954 0.085737 -0.996318
7431067.315223 -412238.357029 -1.456216 0.114329 -0.993443
7431067.359033 -412238.511402 -1.426662 0.143636 -0.989631
7431067.407748 -412238.652780 -1.396952 0.172970 -0.984927
7431067.443279 -412238.806676 -1.367478 0.201920 -0.979402
7431067.477017 -412238.957188 -1.338446 0.230265 -0.973128
7431067.540481 -412239.107244 -1.309233 0.258591 -0.965987
7431067.584112 -412239.257539 -1.280275 0.286452 -0.958095
7431067.655239 -412239.409928 -1.250814 0.314550 -0.949241
7431067.728486 -412239.554215 -1.221653 0.342093 -0.939666
7431067.790187 -412239.702499 -1.192666 0.369183 -0.929357
7431067.875631 -412239.850418 -1.163781 0.395871 -0.918306
7431067.941470 -412239.995909 -1.134989 0.422142 -0.906530
7431068.038065 -412240.128583 -1.106740 0.447579 -0.894244
7431068.112299 -412240.271658 -1.078936 0.472267 -0.881456
7431068.213289 -412240.413824 -1.051589 0.496192 -0.868213
7431068.316904 -412240.542561 -1.024816 0.519256 -0.854618
7431068.421733 -412240.687395 -0.998918 0.541212 -0.840886
7431068.530701 -412240.823872 -0.974186 0.561842 -0.827245
7431068.641940 -412240.958538 -0.950383 0.581372 -0.813638
7431068.751133 -412241.092696 -0.927570 0.599780 -0.800165
7431068.870127 -412241.226921 -0.905796 0.617060 -0.786916
7431068.992860 -412241.365552 -0.884834 0.633418 -0.773810
7431069.105430 -412241.498586 -0.864784 0.648804 -0.760955
7431069.242051 -412241.624554 -0.845380 0.663447 -0.748224
7431069.373907 -412241.750018 -0.826503 0.677452 -0.735567
7431069.496790 -412241.881025 -0.808550 0.690548 -0.723287
7431069.635197 -412242.010756 -0.791107 0.703058 -0.711132
7431069.767308 -412242.139877 -0.773964 0.715145 -0.698976
7431069.901439 -412242.268756 -0.758040 0.726185 -0.687500
7431070.038591 -412242.396329 -0.742400 0.736848 -0.676058
7431070.192327 -412242.518354 -0.727318 0.746960 -0.664869
7431070.346025 -412242.642864 -0.713088 0.756346 -0.654172
7431070.492485 -412242.767676 -0.699863 0.764930 -0.644113
7431070.642316 -412242.892034 -0.686819 0.773267 -0.634081
7431070.794893 -412243.015329 -0.674446 0.781053 -0.624465
7431070.950364 -412243.137810 -0.662510 0.788451 -0.615098
7431071.109256 -412243.260095 -0.651124 0.795403 -0.606081
7431071.271577 -412243.382212 -0.640378 0.801870 -0.597499
7431071.436516 -412243.503588 -0.630037 0.808006 -0.589175
7431071.604804 -412243.625033 -0.620390 0.813652 -0.581352
7431071.784757 -412243.742742 -0.611185 0.818968 -0.573838
7431071.962190 -412243.856519 -0.602901 0.823694 -0.567034
7431072.137255 -412243.976055 -0.595213 0.828029 -0.560685
7431072.315051 -412244.095739 -0.588565 0.831738 -0.555168
7431072.494477 -412244.214916 -0.582228 0.835240 -0.549886
7431072.675974 -412244.333954 -0.578476 0.837297 -0.546748
7431072.859040 -412244.452811 -0.572787 0.840394 -0.541976
7431073.054559 -412244.562476 -0.569443 0.842201 -0.539163
7431073.241235 -412244.677735 -0.566675 0.843690 -0.536830
7431073.429721 -412244.797373 -0.565476 0.844334 -0.535818
7431073.622605 -412244.916295 -0.564568 0.844820 -0.535051
7431073.813482 -412245.037346 -0.565243 0.844459 -0.535621
7431074.005818 -412245.159498 -0.566142 0.843977 -0.536380
7431074.199467 -412245.282929 -0.566833 0.843606 -0.536963
7431074.394459 -412245.407240 -0.567671 0.843156 -0.537670
7431074.591499 -412245.532581 -0.568152 0.842897 -0.538076
7431074.788469 -412245.658489 -0.569375 0.842238 -0.539105
7431074.986430 -412245.785373 -0.570604 0.841575 -0.540141
7431075.185004 -412245.912996 -0.571839 0.840907 -0.541180
7431075.384762 -412246.041729 -0.573083 0.840233 -0.542225
7431075.585742 -412246.171605 -0.574335 0.839554 -0.543277
7431075.787614 -412246.302412 -0.575545 0.838896 -0.544292
7431075.990975 -412246.434525 -0.576694 0.838270 -0.545256
7431076.195623 -412246.567802 -0.577810 0.837661 -0.546190
7431076.401589 -412246.702265 -0.578933 0.837047 -0.547131
7431076.608287 -412246.837538 -0.580062 0.836429 -0.548076
7431076.816643 -412246.974235 -0.581201 0.835804 -0.549028
7431077.025729 -412247.111749 -0.582306 0.835196 -0.549952
7431077.236072 -412247.250404 -0.583282 0.834660 -0.550766
7431077.446946 -412247.389686 -0.584127 0.834194 -0.551472
7431077.659723 -412247.530464 -0.584856 0.833792 -0.552079
7431077.873325 -412247.671997 -0.585500 0.833436 -0.552616
7431078.088372 -412247.814712 -0.583347 0.834624 -0.550821
7431078.304509 -412247.957445 -0.583783 0.834384 -0.551184
7431078.521658 -412248.100978 -0.584340 0.834076 -0.551649
7431078.739525 -412248.245162 -0.584540 0.833966 -0.551816
7431078.958498 -412248.390140 -0.585102 0.833656 -0.552285
7431079.178406 -412248.535913 -0.585649 0.833353 -0.552741
7431079.400308 -412248.683178 -0.586161 0.833070 -0.553167
7431079.622838 -412248.831013 -0.586600 0.832828 -0.553532
7431079.847010 -412248.980068 -0.586958 0.832629 -0.553831
7431080.072135 -412249.129859 -0.587231 0.832478 -0.554058
7431080.300718 -412249.281394 -0.586631 0.832811 -0.553558
7431080.528025 -412249.432508 -0.586791 0.832722 -0.553691
7431080.756013 -412249.584127 -0.586943 0.832637 -0.553819
7431080.984990 -412249.736453 -0.587097 0.832553 -0.553946
7431081.214926 -412249.889469 -0.587246 0.832470 -0.554071
7431081.446375 -412250.043535 -0.587357 0.832408 -0.554163
7431081.679226 -412250.198562 -0.587396 0.832387 -0.554195
7431081.912687 -412250.353991 -0.587326 0.832426 -0.554137
7431082.147976 -412250.510586 -0.587090 0.832556 -0.553941
7431082.384581 -412250.667947 -0.586683 0.832782 -0.553601
7431082.622809 -412250.826223 -0.586149 0.833077 -0.553157
7431082.861593 -412250.984672 -0.585554 0.833406 -0.552662
7431083.101922 -412251.143939 -0.584961 0.833734 -0.552167
7431083.342511 -412251.303184 -0.584441 0.834021 -0.551733
7431083.584328 -412251.463073 -0.583988 0.834270 -0.551356
7431083.826140 -412251.622817 -0.583624 0.834471 -0.551052
7431084.069004 -412251.783137 -0.583294 0.834653 -0.550776
7431084.312614 -412251.943834 -0.582963 0.834835 -0.550500
7431084.557298 -412252.105128 -0.582672 0.834995 -0.550257
7431084.802308 -412252.266553 -0.582499 0.835091 -0.550112
7431085.047515 -412252.428061 -0.582380 0.835156 -0.550013
7431085.292900 -412252.589645 -0.582261 0.835222 -0.549914
7431085.538953 -412252.751626 -0.582141 0.835287 -0.549814
7431085.785534 -412252.913912 -0.582021 0.835353 -0.549714
7431086.032363 -412253.076322 -0.581918 0.835410 -0.549627
7431086.280029 -412253.239249 -0.581832 0.835457 -0.549555
7431086.527428 -412253.401973 -0.581767 0.835493 -0.549501
7431086.774790 -412253.564657 -0.581488 0.835646 -0.549268
7431087.022961 -412253.727785 -0.581530 0.835623 -0.549303
7431087.271009 -412253.890859 -0.581652 0.835556 -0.549405
7431087.519066 -412254.054002 -0.581874 0.835434 -0.549591
7431087.767172 -412254.217276 -0.582204 0.835253 -0.549867
7431088.014927 -412254.380448 -0.582304 0.835198 -0.549949
7431088.262537 -412254.543580 -0.582819 0.834914 -0.550380
7431088.509499 -412254.706483 -0.583412 0.834588 -0.550874
7431088.755695 -412254.869093 -0.584019 0.834253 -0.551381
7431089.001085 -412255.031197 -0.582674 0.834994 -0.550258
7431089.247027 -412255.193377 -0.583270 0.834666 -0.550756
7431089.492875 -412255.355700 -0.583830 0.834357 -0.551224
7431089.739308 -412255.518602 -0.584360 0.834065 -0.551666
7431089.985650 -412255.681627 -0.584865 0.833787 -0.552087
7431090.231792 -412255.844696 -0.585138 0.833636 -0.552314
7431090.478548 -412256.008270 -0.585640 0.833358 -0.552733
7431090.724809 -412256.171694 -0.586142 0.833081 -0.553151
7431090.971166 -412256.335356 -0.586613 0.832820 -0.553543
7431091.216014 -412256.498633 -0.585564 0.833401 -0.552669
7431091.462325 -412256.662047 -0.585967 0.833178 -0.553005
7431091.708097 -412256.825241 -0.586337 0.832973 -0.553314
7431091.953844 -412256.988542 -0.586670 0.832789 -0.553591
7431092.198886 -412257.151483 -0.586950 0.832634 -0.553824
7431092.443666 -412257.314343 -0.587207 0.832492 -0.554038
7431092.688113 -412257.477072 -0.587463 0.832349 -0.554251
7431092.932483 -412257.639840 -0.587720 0.832207 -0.554465
7431093.176201 -412257.802265 -0.587985 0.832060 -0.554685
7431093.419166 -412257.964285 -0.588266 0.831904 -0.554920
7431093.662611 -412258.126724 -0.588549 0.831747 -0.555155
7431093.904774 -412258.288406 -0.588830 0.831591 -0.555389
7431094.146211 -412258.449702 -0.589111 0.831435 -0.555622
7431094.386216 -412258.610138 -0.589398 0.831276 -0.555861
7431094.624785 -412258.769722 -0.589735 0.831088 -0.556141
7431094.862534 -412258.928890 -0.590192 0.830834 -0.556521
7431095.098795 -412259.087243 -0.590793 0.830499 -0.557020
7431095.333690 -412259.244907 -0.591515 0.830097 -0.557619
7431095.567508 -412259.402117 -0.592376 0.829617 -0.558334
7431095.799957 -412259.558707 -0.592961 0.829290 -0.558819
7431096.030642 -412259.714322 -0.593966 0.828727 -0.559653
7431096.259444 -412259.869006 -0.594986 0.828156 -0.560497
7431096.486322 -412260.022724 -0.595895 0.827646 -0.561250
7431096.710847 -412260.175142 -0.596876 0.827095 -0.562061
7431096.933626 -412260.326689 -0.597822 0.826564 -0.562843
7431097.154571 -412260.477287 -0.598727 0.826054 -0.563591
7431097.373212 -412260.626599 -0.599599 0.825562 -0.564311
7431097.589200 -412260.774373 -0.600448 0.825083 -0.565012
7431097.803711 -412260.921397 -0.601252 0.824628 -0.565675
7431098.016411 -412261.067421 -0.601992 0.824209 -0.566285
7431098.227563 -412261.212606 -0.602688 0.823815 -0.566859
7431098.437101 -412261.356887 -0.603321 0.823456 -0.567381
7431098.617284 -412261.486592 -0.602700 0.823808 -0.566869
7431098.817544 -412261.625246 -0.603090 0.823587 -0.567190
7431099.003851 -412261.751619 -0.602812 0.823745 -0.566961
7431099.187229 -412261.875937 -0.602572 0.823881 -0.566763
7431099.384355 -412262.011573 -0.603039 0.823616 -0.567148
7431099.569583 -412262.141238 -0.603257 0.823492 -0.567328
7431099.761174 -412262.273418 -0.603553 0.823324 -0.567572
7431099.950982 -412262.404398 -0.603892 0.823132 -0.567850
7431100.112607 -412262.515847 -0.602976 0.823651 -0.567097
7431100.301873 -412262.646248 -0.603668 0.823259 -0.567666
7431100.473997 -412262.763941 -0.603445 0.823386 -0.567482
7431100.658696 -412262.891470 -0.603690 0.823247 -0.567684
7431100.841099 -412263.017157 -0.604159 0.822980 -0.568070
7431101.007988 -412263.130779 -0.603965 0.823090 -0.567911
7431101.172920 -412263.240689 -0.603546 0.823328 -0.567566
7431101.342251 -412263.357469 -0.603512 0.823348 -0.567537
7431101.506471 -412263.469331 -0.603167 0.823543 -0.567253
7431101.673583 -412263.588290 -0.602868 0.823713 -0.567008
7431101.832993 -412263.697529 -0.602279 0.824046 -0.566522
7431102.003624 -412263.814824 -0.602197 0.824093 -0.566454
7431102.169356 -412263.928290 -0.601619 0.824420 -0.565978
7431102.336826 -412264.043220 -0.601297 0.824603 -0.565712
7431102.493557 -412264.149757 -0.600476 0.825067 -0.565035
7431102.651708 -412264.253233 -0.599724 0.825491 -0.564415
7431102.807721 -412264.355517 -0.598927 0.825941 -0.563756
7431102.970675 -412264.466692 -0.598481 0.826192 -0.563388
7431103.131865 -412264.576557 -0.598389 0.826244 -0.563312
7431103.291773 -412264.685525 -0.598042 0.826440 -0.563025
7431103.448386 -412264.791434 -0.597557 0.826712 -0.562625
7431103.597226 -412264.887283 -0.596587 0.827258 -0.561822
7431103.745423 -412264.986961 -0.595830 0.827683 -0.561196
7431103.892583 -412265.084420 -0.594948 0.828177 -0.560466
7431104.038532 -412265.182915 -0.594139 0.828631 -0.559795
7431104.184105 -412265.285583 -0.593269 0.829117 -0.559074
7431104.337616 -412265.389035 -0.592723 0.829423 -0.558621
7431104.480012 -412265.484826 -0.591651 0.830021 -0.557732
7431104.623315 -412265.580660 -0.590560 0.830629 -0.556826
7431104.774829 -412265.682142 -0.589815 0.831043 -0.556208
7431104.925717 -412265.783017 -0.589200 0.831385 -0.555696
7431105.067379 -412265.876086 -0.587921 0.832095 -0.554633
7431105.216095 -412265.975093 -0.586853 0.832688 -0.553743
7431105.363500 -412266.072418 -0.585603 0.833379 -0.552702
7431105.510791 -412266.169948 -0.584250 0.834126 -0.551574
7431105.646755 -412266.254806 -0.582085 0.835318 -0.549767
7431105.792866 -412266.350795 -0.580543 0.836165 -0.548478
7431105.930983 -412266.436439 -0.578163 0.837468 -0.546486
7431106.075858 -412266.530784 -0.576157 0.838562 -0.544806
7431106.209263 -412266.615776 -0.573383 0.840071 -0.542477
7431106.351327 -412266.707765 -0.571059 0.841329 -0.540523
7431106.483629 -412266.792115 -0.568137 0.842905 -0.538063
7431106.616463 -412266.879392 -0.565215 0.844474 -0.535597
7431106.752381 -412266.968427 -0.562155 0.846108 -0.533011
7431106.891673 -412267.057630 -0.558900 0.847839 -0.530254
7431107.030398 -412267.143766 -0.555404 0.849688 -0.527286
7431107.165345 -412267.225014 -0.551569 0.851703 -0.524024
7431107.301210 -412267.308152 -0.547651 0.853750 -0.520683
7431107.434820 -412267.387297 -0.543207 0.856056 -0.516884
7431107.574658 -412267.471048 -0.538534 0.858461 -0.512878
7431107.714925 -412267.553821 -0.533153 0.861209 -0.508251
7431107.855441 -412267.635470 -0.526852 0.864394 -0.502815
7431107.996342 -412267.714699 -0.519600 0.868018 -0.496533
7431108.133741 -412267.787792 -0.511294 0.872112 -0.489306
7431108.276584 -412267.867181 -0.502871 0.876202 -0.481943
7431108.417460 -412267.937894 -0.493509 0.880676 -0.473719
7431108.561662 -412268.014609 -0.484060 0.885113 -0.465377
7431108.704667 -412268.086323 -0.473930 0.889781 -0.456387
7431108.849229 -412268.154282 -0.463534 0.894478 -0.447112
7431108.994404 -412268.225594 -0.452302 0.899443 -0.437037
7431109.139869 -412268.294516 -0.440263 0.904640 -0.426177
7431109.283907 -412268.355042 -0.426770 0.910307 -0.413933
7431109.431220 -412268.420877 -0.412650 0.916061 -0.401038
7431109.578862 -412268.474200 -0.397526 0.922022 -0.387138
7431109.727920 -412268.535579 -0.382298 0.927810 -0.373054
7431109.876635 -412268.587728 -0.366565 0.933564 -0.358411
7431110.025927 -412268.636224 -0.350642 0.939152 -0.343501
7431110.176166 -412268.689890 -0.334561 0.944554 -0.328355
7431110.327136 -412268.737762 -0.317909 0.949891 -0.312581
7431110.479568 -412268.784230 -0.300598 0.955160 -0.296091
7431110.634167 -412268.810892 -0.282018 0.960496 -0.278295
7431110.793163 -412268.846323 -0.262955 0.965626 -0.259935
7431110.949212 -412268.873355 -0.243045 0.970610 -0.240659
7431111.111406 -412268.899860 -0.222855 0.975271 -0.221015
7431111.267734 -412268.933871 -0.202540 0.979559 -0.201158
7431111.429712 -412268.947566 -0.182074 0.983470 -0.181070
7431111.588492 -412268.974175 -0.162089 0.986892 -0.161380
7431111.748541 -412268.998889 -0.141711 0.989976 -0.141238
7431111.919040 -412269.000602 -0.121170 0.992668 -0.120874
7431112.087686 -412269.008123 -0.100126 0.994992 -0.099958
7431112.254779 -412269.016310 -0.078685 0.996906 -0.078604
7431112.425292 -412269.021139 -0.057087 0.998371 -0.057056
7431112.592613 -412269.029145 -0.035304 0.999377 -0.035297
7431112.772867 -412269.018611 -0.013691 0.999906 -0.013691
7431112.950767 -412269.004915 0.008187 0.999966 0.008187
7431113.124651 -412268.986813 0.030380 0.999539 0.030375
7431113.305556 -412268.960425 0.052688 0.998612 0.052664
7431113.478998 -412268.948650 0.075060 0.997184 0.074990
7431113.662808 -412268.911482 0.097557 0.995245 0.097403
7431113.837570 -412268.892718 0.120050 0.992803 0.119761
7431114.020846 -412268.851804 0.142400 0.989878 0.141919
7431114.197862 -412268.819213 0.164660 0.986474 0.163917
7431114.375303 -412268.772544 0.187098 0.982548 0.186008
7431114.556734 -412268.722790 0.209459 0.978144 0.207930
7431114.737711 -412268.670887 0.231975 0.973214 0.229900
7431114.915238 -412268.620692 0.254904 0.967688 0.252152
7431115.091796 -412268.553699 0.278216 0.961547 0.274641
7431115.269982 -412268.487368 0.301143 0.954998 0.296612
7431115.439568 -412268.412525 0.324582 0.947784 0.318913
7431115.612759 -412268.331945 0.347807 0.940123 0.340837
7431115.783467 -412268.249736 0.371164 0.931906 0.362700
7431115.957881 -412268.166256 0.394422 0.923219 0.384275
7431116.126650 -412268.075645 0.417857 0.913961 0.405803
7431116.297440 -412267.984389 0.441037 0.904309 0.426878
7431116.468486 -412267.890246 0.463698 0.894405 0.447259
7431116.627659 -412267.785441 0.486430 0.884007 0.467473
7431116.798297 -412267.681293 0.508235 0.873605 0.486636
7431116.968768 -412267.582109 0.529445 0.863088 0.505054
7431117.134601 -412267.462612 0.550257 0.852390 0.522906
7431117.303095 -412267.343810 0.570543 0.841608 0.540089
7431117.460215 -412267.220906 0.590334 0.830755 0.556638
7431117.626491 -412267.107586 0.609191 0.820111 0.572204
7431117.787570 -412266.976587 0.627287 0.809623 0.586950
7431117.942578 -412266.846394 0.644267 0.799540 0.600613
7431118.104772 -412266.721376 0.659590 0.790244 0.612793
7431118.265123 -412266.592085 0.674052 0.781299 0.624157
7431118.425301 -412266.462431 0.687763 0.772668 0.634811
7431118.584076 -412266.330312 0.701166 0.764090 0.645109
7431118.741083 -412266.196106 0.714256 0.755581 0.655056
7431118.896096 -412266.060089 0.727215 0.747029 0.664791
7431119.049771 -412265.921699 0.740340 0.738239 0.674539
7431119.194592 -412265.765512 0.753434 0.729344 0.684148
7431119.344652 -412265.622407 0.766452 0.720376 0.693583
7431119.485297 -412265.467631 0.779613 0.711186 0.703004
7431119.632429 -412265.320093 0.792371 0.702159 0.712020
7431119.777243 -412265.170242 0.805297 0.692897 0.721036
7431119.920452 -412265.019372 0.818312 0.683454 0.729993
7431120.053620 -412264.857081 0.831971 0.673420 0.739260
7431120.186999 -412264.698859 0.845729 0.663186 0.748455
7431120.322774 -412264.541651 0.859924 0.652495 0.757793
7431120.457457 -412264.383068 0.874417 0.641444 0.767169
7431120.589473 -412264.222927 0.889202 0.630032 0.776569
7431120.712130 -412264.053775 0.904089 0.618402 0.785862
7431120.838066 -412263.889247 0.918906 0.606691 0.794938
7431120.961683 -412263.722587 0.934019 0.594608 0.804016
7431121.084211 -412263.554277 0.949714 0.581916 0.813249
7431121.203946 -412263.384276 0.965292 0.569177 0.822215
7431121.319426 -412263.212235 0.982295 0.555115 0.831774
7431121.431953 -412263.039056 0.999168 0.541002 0.841021
7431121.540696 -412262.864382 1.016324 0.526495 0.850178
7431121.627925 -412262.679588 1.034414 0.511029 0.859563
7431121.731335 -412262.501642 1.052116 0.495735 0.868474
7431121.831290 -412262.321619 1.070450 0.479729 0.877416
7431121.927703 -412262.139802 1.089264 0.463138 0.886286
7431122.021523 -412261.956082 1.108725 0.445803 0.895131
7431122.090689 -412261.766519 1.129447 0.427160 0.904176
7431122.176261 -412261.579611 1.150564 0.407972 0.912994
7431122.244896 -412261.388420 1.172422 0.387921 0.921693
7431122.321678 -412261.198711 1.194461 0.367514 0.930018
7431122.393473 -412261.007888 1.216886 0.346569 0.938025
7431122.459976 -412260.816342 1.239912 0.324879 0.945755
7431122.523674 -412260.623879 1.263213 0.302756 0.953068
7431122.575218 -412260.430293 1.287267 0.279746 0.960074
7431122.629687 -412260.234998 1.310975 0.256908 0.966436
7431122.678538 -412260.038729 1.335317 0.233309 0.972403
7431122.720637 -412259.841802 1.360013 0.209226 0.977867
7431122.760504 -412259.643503 1.385173 0.184559 0.982821
7431122.795305 -412259.444750 1.410758 0.159356 0.987221
7431122.824974 -412259.245581 1.436116 0.134274 0.990944
7431122.849519 -412259.046397 1.460299 0.110273 0.993901
7431122.868523 -412258.847775 1.488196 0.082507 0.996591
7431122.880445 -412258.650229 1.515685 0.055083 0.998482
7431122.888971 -412258.451952 1.539966 0.030825 0.999525
7431122.892672 -412258.254278 1.564190 0.006606 0.999978
7431122.890872 -412258.057231 1.593580 -0.022782 0.999740
7431122.883751 -412257.860045 1.620486 -0.049669 0.998766
7431122.870396 -412257.664285 1.647992 -0.077119 0.997022
7431122.851529 -412257.469194 1.674800 -0.103817 0.994596
7431122.827883 -412257.274380 1.700721 -0.129560 0.991572
7431122.777821 -412257.092489 1.729092 -0.157635 0.987497
7431122.742790 -412256.900783 1.755812 -0.183962 0.982933
7431122.704241 -412256.710398 1.782101 -0.209736 0.977758
7431122.660678 -412256.521857 1.808299 -0.235276 0.971929
7431122.612674 -412256.334355 1.834586 -0.260741 0.965409
7431122.534263 -412256.159128 1.860989 -0.286137 0.958189
7431122.476989 -412255.975239 1.886454 -0.310441 0.950592
7431122.415274 -412255.793400 1.912160 -0.334773 0.942299
7431122.347881 -412255.613510 1.938945 -0.359889 0.932995
7431122.276638 -412255.434959 1.963338 -0.382538 0.923940
7431122.200537 -412255.258969 1.989114 -0.406223 0.913774
7431122.120536 -412255.084245 2.013369 -0.428266 0.903653
7431122.035525 -412254.911656 2.036821 -0.449339 0.893362
7431121.946927 -412254.741007 2.059512 -0.469493 0.882936
7431121.837758 -412254.583312 2.082681 -0.489821 0.871823
7431121.741239 -412254.415920 2.104235 -0.508498 0.861063
7431121.640438 -412254.250089 2.125395 -0.526602 0.850112
7431121.525181 -412254.092162 2.146525 -0.544446 0.838796
7431121.406996 -412253.936536 2.166217 -0.560857 0.827912
7431121.294615 -412253.775302 2.185621 -0.576815 0.816875
7431121.169081 -412253.623876 2.204224 -0.591911 0.806003
7431121.049048 -412253.466374 2.221972 -0.606122 0.795372
7431120.926408 -412253.309115 2.239258 -0.619779 0.784776
7431120.801239 -412253.154037 2.255813 -0.632686 0.774409
7431120.672979 -412252.999341 2.272079 -0.645198 0.764015
7431120.541617 -412252.847225 2.287587 -0.656968 0.753918
7431120.407595 -412252.696442 2.302005 -0.667770 0.744368
7431120.266996 -412252.554683 2.315839 -0.678003 0.735059
7431120.125441 -412252.414092 2.329734 -0.688151 0.725567
7431119.983381 -412252.265952 2.341864 -0.696901 0.717167
7431119.838668 -412252.118521 2.352948 -0.704807 0.709399
7431119.691165 -412251.971480 2.364444 -0.712916 0.701250
7431119.541584 -412251.825673 2.373426 -0.719185 0.694818
7431119.390208 -412251.680678 2.381942 -0.725077 0.688668
7431119.237111 -412251.536443 2.389980 -0.730589 0.682818
7431119.082326 -412251.392883 2.397575 -0.735753 0.677249
7431118.926122 -412251.250128 2.404665 -0.740537 0.672016
7431118.767719 -412251.107357 2.411380 -0.745032 0.667028
7431118.608201 -412250.965446 2.418026 -0.749449 0.662062
7431118.446590 -412250.823540 2.424326 -0.753605 0.657327
7431118.283657 -412250.682228 2.430241 -0.757480 0.652858
7431118.119285 -412250.541317 2.435501 -0.760904 0.648865
7431117.953691 -412250.400805 2.440372 -0.764055 0.645151
7431117.787057 -412250.260753 2.444912 -0.766976 0.641676
7431117.619398 -412250.121115 2.451146 -0.770961 0.636882
7431117.450245 -412249.981945 2.455087 -0.773466 0.633838
7431117.280027 -412249.842974 2.458716 -0.775760 0.631028
7431117.108878 -412249.704235 2.462043 -0.777856 0.628443
7431116.936888 -412249.566069 2.467213 -0.781094 0.624413
7431116.763566 -412249.427929 2.471212 -0.783585 0.621285
7431116.588834 -412249.289749 2.473704 -0.785131 0.619330
7431116.413155 -412249.151493 2.475940 -0.786514 0.617573
7431116.236813 -412249.013322 2.477960 -0.787760 0.615982
7431116.059401 -412248.874859 2.479754 -0.788864 0.614568
7431115.881469 -412248.736464 2.481295 -0.789810 0.613352
7431115.702799 -412248.597911 2.482658 -0.790645 0.612275
7431115.523222 -412248.459025 2.483879 -0.791392 0.611309
7431115.342903 -412248.319900 2.484982 -0.792066 0.610435
7431115.161853 -412248.180515 2.485996 -0.792685 0.609632
7431114.979815 -412248.040656 2.487175 -0.793403 0.608697
7431114.796918 -412247.900476 2.488121 -0.793978 0.607946
7431114.613399 -412247.760085 2.488979 -0.794499 0.607265
7431114.429786 -412247.619852 2.489726 -0.794953 0.606671
7431114.245298 -412247.479157 2.490375 -0.795346 0.606156
7431114.060516 -412247.338412 2.490920 -0.795676 0.605722
7431113.875134 -412247.197353 2.491357 -0.795941 0.605374
7431113.689736 -412247.056393 2.491679 -0.796136 0.605118
7431113.503777 -412246.915087 2.491907 -0.796274 0.604936
7431113.317423 -412246.773536 2.492052 -0.796362 0.604821
7431113.130954 -412246.631931 2.492132 -0.796410 0.604757
7431112.944435 -412246.490300 2.492145 -0.796418 0.604746
7431112.758168 -412246.348855 2.492090 -0.796385 0.604790
7431112.571452 -412246.207044 2.491981 -0.796319 0.604877
7431112.384893 -412246.065316 2.491835 -0.796230 0.604994
7431112.198344 -412245.923546 2.491652 -0.796120 0.605139
7431112.011688 -412245.781632 2.491407 -0.795972 0.605334
7431111.825356 -412245.639888 2.491125 -0.795801 0.605559
7431111.639039 -412245.498063 2.490790 -0.795598 0.605825
7431111.453328 -412245.356585 2.490465 -0.795401 0.606084
7431111.268235 -412245.215475 2.489952 -0.795090 0.606492
7431111.083190 -412245.074230 2.489294 -0.794691 0.607014
7431110.898421 -412244.932983 2.488493 -0.794204 0.607651
7431110.713846 -412244.791622 2.487505 -0.793603 0.608435
7431110.529941 -412244.650458 2.486325 -0.792885 0.609371
7431110.346560 -412244.509318 2.484892 -0.792011 0.610507
7431110.164040 -412244.368395 2.483216 -0.790986 0.611834
7431109.982354 -412244.227579 2.481207 -0.789756 0.613421
7431109.801780 -412244.086888 2.481433 -0.789894 0.613243
7431109.621144 -412243.946216 2.478357 -0.788004 0.615670
7431109.442025 -412243.805749 2.474889 -0.785864 0.618399
7431109.263511 -412243.664659 2.470778 -0.783316 0.621624
7431109.086087 -412243.523141 2.465917 -0.780285 0.625424
7431108.909926 -412243.381106 2.460293 -0.776755 0.629803
7431108.736005 -412243.239220 2.455079 -0.773460 0.633845
7431108.562889 -412243.096303 2.447914 -0.768899 0.639370
7431108.391979 -412242.953100 2.441443 -0.764746 0.644332
7431108.222219 -412242.808825 2.432826 -0.759165 0.650898
7431108.053764 -412242.663071 2.423928 -0.753343 0.657628
7431107.887201 -412242.516277 2.415867 -0.748018 0.663679
7431107.721684 -412242.367989 2.406188 -0.741559 0.670888
7431107.558415 -412242.218822 2.396398 -0.734956 0.678115
7431107.397133 -412242.068536 2.386523 -0.728224 0.685339
7431107.238202 -412241.917475 2.376615 -0.721398 0.692521
7431107.081407 -412241.765454 2.366681 -0.714483 0.699653
7431106.926592 -412241.612340 2.356756 -0.707504 0.706710
7431106.773383 -412241.457777 2.346837 -0.700459 0.713692
7431106.622072 -412241.302074 2.336943 -0.693364 0.720588
7431106.472551 -412241.145139 2.327065 -0.686212 0.727401
7431106.324844 -412240.987011 2.317205 -0.679007 0.734132
7431106.179156 -412240.827934 2.307378 -0.671759 0.740769
7431106.034928 -412240.667310 2.297543 -0.664442 0.747340
7431105.893104 -412240.506211 2.287763 -0.657101 0.753803
7431105.752878 -412240.343751 2.277980 -0.649695 0.760195
7431105.614541 -412240.180279 2.268226 -0.642250 0.766495
7431105.478183 -412240.015930 2.258547 -0.634801 0.772676
7431105.343529 -412239.850418 2.248985 -0.627384 0.778710
7431105.210740 -412239.684008 2.239638 -0.620078 0.784540
7431105.079749 -412239.516714 2.230573 -0.612940 0.790129
7431104.950567 -412239.348660 2.221781 -0.605970 0.795488
7431104.823178 -412239.179943 2.213284 -0.599189 0.800608
7431104.697509 -412239.010572 2.205033 -0.592563 0.805524
7431104.573613 -412238.840726 2.197064 -0.586125 0.810221
7431104.451037 -412238.669895 2.189357 -0.579863 0.814714
7431104.329904 -412238.498195 2.181150 -0.573157 0.819445
7431104.210529 -412238.326223 2.174066 -0.567338 0.823485
7431104.092328 -412238.153400 2.167327 -0.561776 0.827289
7431103.975260 -412237.979798 2.160927 -0.556470 0.830868
7431103.859322 -412237.805548 2.154907 -0.551458 0.834203
7431103.744394 -412237.630535 2.148131 -0.545792 0.837920
7431103.630762 -412237.455054 2.142818 -0.541333 0.840808
7431103.517936 -412237.278840 2.137861 -0.537158 0.843482
7431103.407767 -412237.102587 2.132748 -0.532839 0.846217
7431103.296945 -412236.925763 2.128538 -0.529272 0.848452
7431103.186758 -412236.748404 2.124974 -0.526244 0.850333
7431103.077214 -412236.570788 2.122014 -0.523725 0.851887
7431102.968495 -412236.393490 2.119817 -0.521852 0.853036
7431102.867422 -412236.219249 2.115961 -0.518559 0.855042
7431102.768127 -412236.046208 2.114431 -0.517250 0.855834
7431102.661568 -412235.869041 2.114022 -0.516900 0.856046
7431102.554265 -412235.691494 2.114323 -0.517157 0.855890
7431102.447389 -412235.513981 2.115907 -0.518513 0.855070
7431102.344426 -412235.340815 2.118234 -0.520501 0.853861
7431102.236537 -412235.164427 2.121392 -0.523195 0.852213
7431102.133168 -412234.993936 2.125111 -0.526360 0.850262
7431102.025812 -412234.820746 2.129618 -0.530187 0.847880
7431101.915976 -412234.646497 2.134674 -0.534468 0.845189
7431101.805509 -412234.472841 2.140074 -0.539024 0.842290
7431101.694145 -412234.299915 2.145854 -0.543883 0.839161
7431101.581873 -412234.127806 2.152520 -0.549465 0.835517
7431101.468488 -412233.956544 2.159474 -0.555262 0.831676
7431101.360063 -412233.797059 2.166340 -0.560959 0.827844
7431101.245274 -412233.629183 2.173511 -0.566881 0.823800
7431101.133148 -412233.471943 2.180623 -0.572725 0.819747
7431101.016067 -412233.305603 2.187679 -0.578495 0.815686
7431100.898067 -412233.140480 2.194963 -0.584421 0.811451
7431100.780445 -412232.985043 2.202631 -0.590626 0.806945
7431100.661627 -412232.826681 2.210711 -0.597127 0.802147
7431100.540309 -412232.665071 2.219096 -0.603832 0.797112
7431100.417802 -412232.504751 2.227621 -0.610605 0.791935
7431100.301767 -412232.360134 2.236249 -0.617415 0.786638
7431100.177748 -412232.203533 2.245122 -0.624370 0.781128
7431100.056686 -412232.061153 2.254378 -0.631574 0.775315
7431099.933386 -412231.913676 2.263683 -0.638761 0.769405
7431099.809120 -412231.766258 2.272571 -0.645574 0.763698
7431099.687598 -412231.627969 2.281510 -0.652375 0.757896
7431099.568002 -412231.492812 2.290293 -0.659006 0.752138
7431099.441968 -412231.350204 2.298866 -0.665430 0.746460
7431099.323966 -412231.222705 2.307086 -0.671543 0.740966
7431099.202807 -412231.094203 2.315505 -0.677757 0.735286
7431099.077231 -412230.959104 2.323593 -0.683683 0.729779
7431098.963852 -412230.842279 2.331619 -0.689518 0.724269
7431098.849373 -412230.725574 2.339683 -0.695335 0.718685
7431098.731177 -412230.604774 2.347536 -0.700958 0.713203
7431098.618119 -412230.505380 2.355309 -0.706480 0.707733
7431098.505715 -412230.397805 2.363051 -0.711939 0.702242
7431098.397750 -412230.297857 2.370840 -0.717386 0.696676
7431098.288855 -412230.195899 2.378796 -0.722907 0.690946
7431098.171351 -412230.084469 2.386387 -0.728130 0.685439
7431098.062005 -412229.981866 2.394028 -0.733347 0.679855
7431097.968916 -412229.909245 2.401383 -0.738327 0.674443
7431097.866630 -412229.825929 2.408463 -0.743084 0.669199
7431097.650365 -412229.633923 2.422298 -0.752270 0.658854
7431097.472853 -412229.478818 2.435368 -0.760817 0.648966
7431097.301371 -412229.336608 2.447079 -0.768365 0.640012
7431097.130460 -412229.197898 2.458160 -0.775410 0.631459
7431096.985008 -412229.082518 2.468707 -0.782026 0.623245
7431096.849953 -412228.983108 2.478214 -0.787916 0.615782
7431096.729931 -412228.901287 2.485614 -0.792451 0.609935
7431096.569232 -412228.780184 2.494558 -0.797875 0.602823
7431096.438699 -412228.684137 2.500772 -0.801605 0.597853
7431096.304312 -412228.585026 2.504472 -0.803812 0.594883
7431096.208743 -412228.519346 2.506169 -0.804821 0.593518
7431096.178652 -412228.502273 2.505915 -0.804670 0.593723
7431096.184454 -412228.502587 2.505783 -0.804591 0.593829
