7756901.921173 -370563.191761 -2.204264 -0.591943 -0.805980
7756901.702482 -370563.494090 -2.190784 -0.581025 -0.813885
7756901.487982 -370563.799208 -2.177354 -0.570043 -0.821615
7756901.277575 -370564.107228 -2.163887 -0.558926 -0.829217
7756901.071248 -370564.418131 -2.149504 -0.546942 -0.837170
7756900.868366 -370564.733671 -2.136409 -0.535933 -0.844260
7756900.670085 -370565.051089 -2.123142 -0.524686 -0.851296
7756900.475891 -370565.371345 -2.109834 -0.513311 -0.858203
7756900.285375 -370565.695271 -2.096313 -0.501660 -0.865065
7756900.099561 -370566.021271 -2.082625 -0.489772 -0.871850
7756899.917825 -370566.350575 -2.068998 -0.477847 -0.878443
7756899.740772 -370566.682002 -2.055137 -0.465625 -0.884982
7756899.567797 -370567.016912 -2.041236 -0.453278 -0.891369
7756899.399390 -370567.354301 -2.026292 -0.439907 -0.898043
7756899.236433 -370567.693440 -2.012832 -0.427780 -0.903883
7756899.078067 -370568.034768 -1.999148 -0.415372 -0.909652
7756898.923545 -370568.380068 -1.985591 -0.403002 -0.915199
7756898.773591 -370568.727561 -1.972260 -0.390766 -0.920490
7756898.627896 -370569.077491 -1.958473 -0.378038 -0.925790
7756898.486529 -370569.430780 -1.946176 -0.366626 -0.930368
7756898.349875 -370569.784701 -1.933953 -0.355227 -0.934780
7756898.217322 -370570.140487 -1.920917 -0.343011 -0.939331
7756898.088911 -370570.499413 -1.907816 -0.330675 -0.943745
7756897.969136 -370570.858270 -1.895807 -0.319319 -0.947647
7756897.856861 -370571.218747 -1.883519 -0.307651 -0.951499
7756897.741929 -370571.582882 -1.871164 -0.295872 -0.955228
7756897.631893 -370571.946774 -1.859009 -0.284239 -0.958753
7756897.525754 -370572.313907 -1.846890 -0.272599 -0.962128
7756897.424458 -370572.680618 -1.833738 -0.259923 -0.965629
7756897.327797 -370573.049525 -1.822503 -0.249057 -0.968489
7756897.235229 -370573.419833 -1.810096 -0.237022 -0.971504
7756897.147033 -370573.792052 -1.798775 -0.226009 -0.974125
7756897.063210 -370574.164514 -1.787487 -0.214999 -0.976614
7756896.983347 -370574.539020 -1.776347 -0.204106 -0.978949
7756896.907134 -370574.916902 -1.765119 -0.193102 -0.981179
7756896.834963 -370575.296055 -1.752678 -0.180881 -0.983505
7756896.767619 -370575.675815 -1.741641 -0.170014 -0.985442
7756896.704278 -370576.057343 -1.729808 -0.158342 -0.987384
7756896.645256 -370576.440592 -1.717424 -0.146103 -0.989269
7756896.591508 -370576.826118 -1.706086 -0.134877 -0.990862
7756896.541725 -370577.210421 -1.694574 -0.123462 -0.992349
7756896.495915 -370577.597236 -1.682810 -0.111779 -0.993733
7756896.454751 -370577.984581 -1.672009 -0.101040 -0.994882
7756896.417522 -370578.372528 -1.660987 -0.090068 -0.995936
7756896.384726 -370578.759564 -1.652041 -0.081155 -0.996701
7756896.355356 -370579.151405 -1.641679 -0.070824 -0.997489
7756896.329752 -370579.541269 -1.632901 -0.062065 -0.998072
7756896.307551 -370579.933865 -1.623600 -0.052779 -0.998606
7756896.288873 -370580.326722 -1.614847 -0.044037 -0.999030
7756896.273410 -370580.717977 -1.607047 -0.036243 -0.999343
7756896.260755 -370581.111318 -1.598912 -0.028112 -0.999605
7756896.251253 -370581.504425 -1.591048 -0.020250 -0.999795
7756896.244793 -370581.897669 -1.583447 -0.012650 -0.999920
7756896.241405 -370582.292152 -1.576337 -0.005541 -0.999985
7756896.240720 -370582.686853 -1.568718 0.002079 -0.999998
7756896.243101 -370583.082257 -1.562543 0.008253 -0.999966
7756896.247504 -370583.479744 -1.557051 0.013745 -0.999906
7756896.253906 -370583.876595 -1.552338 0.018457 -0.999830
7756896.262108 -370584.275751 -1.548258 0.022536 -0.999746
7756896.271788 -370584.673944 -1.544781 0.026012 -0.999662
7756896.282775 -370585.071669 -1.541643 0.029150 -0.999575
7756896.294989 -370585.471108 -1.538843 0.031948 -0.999490
7756896.308884 -370585.872168 -1.536799 0.033991 -0.999422
7756896.323031 -370586.271067 -1.533816 0.036972 -0.999316
7756896.338341 -370586.670909 -1.532130 0.038657 -0.999253
7756896.354277 -370587.070061 -1.530613 0.040173 -0.999193
7756896.370586 -370587.471553 -1.529847 0.040938 -0.999162
7756896.387095 -370587.872255 -1.529448 0.041337 -0.999145
7756896.403754 -370588.273695 -1.529234 0.041551 -0.999136
7756896.420736 -370588.674707 -1.528873 0.041911 -0.999121
7756896.437570 -370589.075925 -1.528839 0.041945 -0.999120
7756896.454511 -370589.479161 -1.528779 0.042005 -0.999117
7756896.471466 -370589.882215 -1.528749 0.042035 -0.999116
7756896.488487 -370590.287268 -1.528898 0.041886 -0.999122
7756896.505468 -370590.693701 -1.529208 0.041577 -0.999135
7756896.522243 -370591.099028 -1.528865 0.041919 -0.999121
7756896.539116 -370591.503651 -1.529378 0.041407 -0.999142
7756896.555758 -370591.907922 -1.529958 0.040827 -0.999166
7756896.572231 -370592.314386 -1.530649 0.040136 -0.999194
7756896.588372 -370592.720549 -1.531569 0.039217 -0.999231
7756896.604081 -370593.126591 -1.532750 0.038037 -0.999276
7756896.619255 -370593.533702 -1.533437 0.037351 -0.999302
7756896.634076 -370593.941783 -1.535659 0.035130 -0.999383
7756896.647900 -370594.351159 -1.537073 0.033717 -0.999431
7756896.660965 -370594.760473 -1.540839 0.029953 -0.999551
7756896.672359 -370595.170339 -1.543704 0.027089 -0.999633
7756896.682442 -370595.580718 -1.548825 0.021970 -0.999759
7756896.690324 -370595.990226 -1.554349 0.016447 -0.999865
7756896.695929 -370596.400979 -1.558871 0.011925 -0.999929
7756896.699622 -370596.812123 -1.564776 0.006020 -0.999982
7756896.700876 -370597.222956 -1.570722 0.000075 -1.000000
7756896.699683 -370597.633320 -1.576680 -0.005883 -0.999983
7756896.696042 -370598.044182 -1.582648 -0.011852 -0.999930
7756896.689940 -370598.455060 -1.588661 -0.017864 -0.999840
7756896.681309 -370598.867118 -1.593690 -0.022892 -0.999738
7756896.667123 -370599.278439 -1.598914 -0.028114 -0.999605
7756896.654236 -370599.691578 -1.604439 -0.033636 -0.999434
7756896.639108 -370600.104180 -1.610428 -0.039621 -0.999215
7756896.621534 -370600.516461 -1.616358 -0.045546 -0.998962
7756896.601446 -370600.930044 -1.622304 -0.051485 -0.998674
7756896.578894 -370601.343518 -1.628279 -0.057451 -0.998348
7756896.553850 -370601.756893 -1.634356 -0.063517 -0.997981
7756896.526267 -370602.170295 -1.640471 -0.069618 -0.997574
7756896.496113 -370602.584425 -1.646468 -0.075600 -0.997138
7756896.463485 -370602.998400 -1.652444 -0.081557 -0.996669
7756896.428317 -370603.412733 -1.657588 -0.086683 -0.996236
7756896.391119 -370603.825373 -1.663456 -0.092527 -0.995710
7756896.351415 -370604.238207 -1.669334 -0.098378 -0.995149
7756896.309082 -370604.652510 -1.675948 -0.104958 -0.994477
7756896.263995 -370605.066106 -1.682868 -0.111837 -0.993727
7756896.215883 -370605.479993 -1.688650 -0.117581 -0.993063
7756896.165254 -370605.894547 -1.696049 -0.124925 -0.992166
7756896.111560 -370606.308465 -1.703576 -0.132390 -0.991198
7756896.054529 -370606.723031 -1.710065 -0.138819 -0.990318
7756895.994343 -370607.139994 -1.717078 -0.145761 -0.989320
7756895.931219 -370607.556537 -1.725326 -0.153916 -0.988084
7756895.864611 -370607.972718 -1.733696 -0.162180 -0.986761
7756895.794441 -370608.388672 -1.742143 -0.170510 -0.985356
7756895.720713 -370608.804146 -1.748763 -0.177029 -0.984206
7756895.644323 -370609.218784 -1.757201 -0.185327 -0.982677
7756895.564337 -370609.633336 -1.765590 -0.193564 -0.981088
7756895.480516 -370610.048868 -1.773385 -0.201206 -0.979549
7756895.393316 -370610.464332 -1.781363 -0.209014 -0.977913
7756895.302448 -370610.880693 -1.789368 -0.216836 -0.976208
7756895.208304 -370611.296294 -1.797774 -0.225034 -0.974351
7756895.106975 -370611.709151 -1.805456 -0.232512 -0.972594
7756895.005873 -370612.124215 -1.813192 -0.240029 -0.970766
7756894.901667 -370612.538007 -1.820924 -0.247528 -0.968881
7756894.794358 -370612.950491 -1.829722 -0.256042 -0.966666
7756894.683184 -370613.362790 -1.838648 -0.264660 -0.964342
7756894.568052 -370613.774999 -1.846314 -0.272045 -0.962285
7756894.449567 -370614.186950 -1.854497 -0.279911 -0.960026
7756894.329177 -370614.597689 -1.863068 -0.288128 -0.957592
7756894.203676 -370615.008421 -1.871801 -0.296480 -0.955039
7756894.074152 -370615.419225 -1.880552 -0.304826 -0.952408
7756893.940995 -370615.829147 -1.889348 -0.313192 -0.949690
7756893.804146 -370616.237870 -1.897912 -0.321313 -0.946973
7756893.663101 -370616.647326 -1.907149 -0.330046 -0.943965
7756893.518632 -370617.054752 -1.915174 -0.337611 -0.941286
7756893.371364 -370617.459613 -1.924147 -0.346044 -0.938218
7756893.219981 -370617.864471 -1.933062 -0.354394 -0.935096
7756893.064141 -370618.270237 -1.941906 -0.362650 -0.931926
7756892.905006 -370618.673938 -1.950640 -0.370776 -0.928722
7756892.741687 -370619.077926 -1.959301 -0.378805 -0.925477
7756892.574835 -370619.480633 -1.967860 -0.386712 -0.922201
7756892.404033 -370619.883163 -1.975201 -0.393472 -0.919337
7756892.230426 -370620.284155 -1.983522 -0.401108 -0.916031
7756892.052931 -370620.685023 -1.991712 -0.408596 -0.912715
7756891.872794 -370621.083121 -1.999686 -0.415861 -0.909428
7756891.689120 -370621.480696 -2.007427 -0.422889 -0.906182
7756891.501629 -370621.878512 -2.014976 -0.429717 -0.902963
7756891.310830 -370622.275682 -2.022255 -0.436279 -0.899812
7756891.116943 -370622.671997 -2.029250 -0.442562 -0.896738
7756890.920001 -370623.067193 -2.035746 -0.448377 -0.893844
7756890.719822 -370623.462723 -2.041984 -0.453945 -0.891030
7756890.517122 -370623.857650 -2.047969 -0.459269 -0.888297
7756890.312071 -370624.251464 -2.053662 -0.464319 -0.885668
7756890.103956 -370624.645828 -2.059064 -0.469096 -0.883147
7756889.894377 -370625.037290 -2.063958 -0.473413 -0.880840
7756889.682850 -370625.428575 -2.068785 -0.477659 -0.878545
7756889.468025 -370625.820185 -2.073528 -0.481821 -0.876270
7756889.252333 -370626.210486 -2.077756 -0.485522 -0.874225
7756889.033712 -370626.602300 -2.081646 -0.488919 -0.872329
7756888.813619 -370626.993151 -2.086124 -0.492820 -0.870131
7756888.590398 -370627.385774 -2.089319 -0.495598 -0.868552
7756888.365978 -370627.777784 -2.092118 -0.498027 -0.867162
7756888.140287 -370628.169627 -2.094539 -0.500125 -0.865953
7756887.912967 -370628.562287 -2.096548 -0.501863 -0.864947
7756887.685174 -370628.954132 -2.098099 -0.503204 -0.864168
7756887.457023 -370629.345459 -2.099103 -0.504072 -0.863662
7756887.227813 -370629.737926 -2.099565 -0.504470 -0.863429
7756886.998391 -370630.130486 -2.100893 -0.505617 -0.862758
7756886.768478 -370630.523061 -2.100233 -0.505048 -0.863092
7756886.537901 -370630.917494 -2.099358 -0.504292 -0.863533
7756886.306641 -370631.313214 -2.098544 -0.503589 -0.863943
7756886.075788 -370631.709575 -2.097885 -0.503019 -0.864275
7756885.845053 -370632.106278 -2.097315 -0.502527 -0.864562
7756885.613673 -370632.504613 -2.096737 -0.502026 -0.864852
7756885.383289 -370632.901772 -2.096144 -0.501514 -0.865150
7756885.152489 -370633.300193 -2.095548 -0.500998 -0.865448
7756884.921451 -370633.699575 -2.094951 -0.500482 -0.865747
7756884.690554 -370634.099263 -2.094354 -0.499964 -0.866046
7756884.459852 -370634.499167 -2.093738 -0.499431 -0.866354
7756884.228738 -370634.900396 -2.093017 -0.498806 -0.866714
7756883.998129 -370635.301511 -2.092063 -0.497979 -0.867189
7756883.766275 -370635.705857 -2.090740 -0.496831 -0.867847
7756883.535039 -370636.110480 -2.090059 -0.496240 -0.868186
7756883.305114 -370636.513656 -2.088041 -0.494487 -0.869185
7756883.074963 -370636.919237 -2.085818 -0.492553 -0.870282
7756882.846370 -370637.324243 -2.083454 -0.490495 -0.871444
7756882.618700 -370637.729871 -2.081060 -0.488407 -0.872616
7756882.391191 -370638.137498 -2.078671 -0.486321 -0.873780
7756882.164473 -370638.545974 -2.076326 -0.484271 -0.874918
7756881.937970 -370638.956319 -2.074007 -0.482241 -0.876039
7756881.713377 -370639.365413 -2.071738 -0.480251 -0.877131
7756881.489036 -370639.776259 -2.069461 -0.478253 -0.878222
7756881.265878 -370640.187169 -2.067830 -0.476821 -0.879001
7756881.043495 -370640.598169 -2.065732 -0.474975 -0.879999
7756880.821615 -370641.010235 -2.063770 -0.473248 -0.880929
7756880.599609 -370641.424362 -2.062080 -0.471758 -0.881728
7756880.378093 -370641.839120 -2.060639 -0.470487 -0.882407
7756880.156349 -370642.255635 -2.059399 -0.469393 -0.882989
7756879.935385 -370642.671884 -2.058226 -0.468356 -0.883540
7756879.714549 -370643.089090 -2.057009 -0.467281 -0.884109
7756879.494185 -370643.506665 -2.056165 -0.466534 -0.884503
7756879.274770 -370643.923401 -2.054644 -0.465188 -0.885212
7756879.054771 -370644.342897 -2.052920 -0.463662 -0.886012
7756878.835947 -370644.762081 -2.051785 -0.462656 -0.886538
7756878.617165 -370645.182485 -2.049456 -0.460590 -0.887613
7756878.398877 -370645.604460 -2.046888 -0.458309 -0.888793
7756878.181365 -370646.027662 -2.044227 -0.455942 -0.890009
7756877.964749 -370646.451882 -2.041599 -0.453602 -0.891204
7756877.748551 -370646.877999 -2.039064 -0.451341 -0.892351
7756877.533230 -370647.304988 -2.036683 -0.449215 -0.893424
7756877.319146 -370647.731984 -2.034395 -0.447170 -0.894449
7756877.105450 -370648.160657 -2.032115 -0.445130 -0.895466
7756876.893183 -370648.589340 -2.030726 -0.443885 -0.896084
7756876.680521 -370649.017916 -2.028878 -0.442229 -0.896902
7756876.468909 -370649.448422 -2.026993 -0.440537 -0.897734
7756876.257585 -370649.880696 -2.024790 -0.438558 -0.898703
7756876.047033 -370650.313762 -2.022553 -0.436547 -0.899681
7756875.837603 -370650.746912 -2.020223 -0.434450 -0.900696
7756875.629283 -370651.181998 -2.017988 -0.432435 -0.901665
7756875.422517 -370651.616793 -2.015643 -0.430319 -0.902677
7756875.218460 -370652.051152 -2.013251 -0.428159 -0.903703
7756875.012114 -370652.488530 -2.010869 -0.426005 -0.904721
7756874.806296 -370652.927294 -2.008543 -0.423900 -0.905709
7756874.601450 -370653.366649 -2.006089 -0.421676 -0.906747
7756874.397901 -370653.806052 -2.003450 -0.419282 -0.907856
7756874.196326 -370654.244213 -2.000510 -0.416610 -0.909085
7756873.995610 -370654.683870 -1.997627 -0.413988 -0.910282
7756873.796012 -370655.124420 -1.994766 -0.411382 -0.911463
7756873.596960 -370655.567058 -1.992053 -0.408908 -0.912576
7756873.399079 -370656.010384 -1.989185 -0.406289 -0.913745
7756873.203019 -370656.452998 -1.986377 -0.403721 -0.914882
7756873.007755 -370656.897181 -1.983562 -0.401144 -0.916015
7756872.813608 -370657.342220 -1.980750 -0.398567 -0.917139
7756872.621194 -370657.786655 -1.977999 -0.396042 -0.918232
7756872.429831 -370658.232015 -1.975262 -0.393527 -0.919313
7756872.240305 -370658.676629 -1.973456 -0.391867 -0.920022
7756872.051180 -370659.122497 -1.970669 -0.389301 -0.921111
7756871.862867 -370659.569740 -1.967968 -0.386812 -0.922159
7756871.675969 -370660.016979 -1.965324 -0.384372 -0.923178
7756871.489891 -370660.465555 -1.962911 -0.382144 -0.924103
7756871.305406 -370660.913170 -1.960608 -0.380015 -0.924980
7756871.122581 -370661.359478 -1.958595 -0.378151 -0.925744
7756870.939786 -370661.808096 -1.956919 -0.376599 -0.926376
7756870.758407 -370662.255169 -1.955535 -0.375317 -0.926896
7756870.576822 -370662.704424 -1.954332 -0.374201 -0.927348
7756870.395774 -370663.153795 -1.952272 -0.372291 -0.928116
7756870.215626 -370663.603512 -1.951088 -0.371191 -0.928556
7756870.035379 -370664.055059 -1.950099 -0.370273 -0.928923
7756869.856297 -370664.504974 -1.949115 -0.369358 -0.929287
7756869.677800 -370664.954707 -1.948131 -0.368444 -0.929650
7756869.499854 -370665.404341 -1.947150 -0.367532 -0.930011
7756869.321833 -370665.855113 -1.945945 -0.366411 -0.930453
7756869.144595 -370666.305818 -1.944990 -0.365522 -0.930803
7756868.968192 -370666.755637 -1.944080 -0.364675 -0.931135
7756868.792367 -370667.205157 -1.943215 -0.363869 -0.931450
7756868.617098 -370667.654382 -1.942379 -0.363091 -0.931754
7756868.442181 -370668.103752 -1.941643 -0.362405 -0.932021
7756868.267182 -370668.554226 -1.941032 -0.361835 -0.932242
7756868.092263 -370669.005294 -1.939862 -0.360744 -0.932665
7756867.917756 -370669.456633 -1.939632 -0.360530 -0.932748
7756867.743068 -370669.908686 -1.939501 -0.360408 -0.932795
7756867.568874 -370670.359518 -1.939515 -0.360421 -0.932790
7756867.394898 -370670.809726 -1.939600 -0.360500 -0.932759
7756867.221132 -370671.259227 -1.939756 -0.360645 -0.932703
7756867.047516 -370671.708127 -1.939912 -0.360791 -0.932647
7756866.874104 -370672.156296 -1.940068 -0.360937 -0.932590
7756866.700586 -370672.604528 -1.940224 -0.361082 -0.932534
7756866.526414 -370673.054243 -1.940381 -0.361228 -0.932478
7756866.352083 -370673.504158 -1.940537 -0.361374 -0.932421
7756866.179800 -370673.952355 -1.940047 -0.360917 -0.932598
7756866.005484 -370674.402716 -1.939702 -0.360595 -0.932722
7756865.832574 -370674.849913 -1.939433 -0.360344 -0.932819
7756865.658965 -370675.299228 -1.939590 -0.360490 -0.932763
7756865.485851 -370675.747047 -1.939417 -0.360329 -0.932825
7756865.313142 -370676.194054 -1.939572 -0.360474 -0.932769
7756865.139913 -370676.642186 -1.939754 -0.360644 -0.932704
7756864.966471 -370677.090615 -1.939961 -0.360837 -0.932629
7756864.793231 -370677.538200 -1.940227 -0.361085 -0.932533
7756864.619389 -370677.986933 -1.940595 -0.361427 -0.932400
7756864.446106 -370678.433671 -1.941051 -0.361853 -0.932235
7756864.272230 -370678.881294 -1.941557 -0.362325 -0.932052
7756864.098915 -370679.326789 -1.942078 -0.362810 -0.931863
7756863.926135 -370679.770227 -1.942596 -0.363293 -0.931675
7756863.752926 -370680.213875 -1.942017 -0.362753 -0.931885
7756863.580585 -370680.656287 -1.942506 -0.363209 -0.931708
7756863.407822 -370681.099077 -1.942515 -0.363217 -0.931704
7756863.235759 -370681.540123 -1.943013 -0.363681 -0.931524
7756863.065162 -370681.976755 -1.943524 -0.364157 -0.931338
7756862.894489 -370682.413161 -1.943971 -0.364573 -0.931175
7756862.724440 -370682.847131 -1.944533 -0.365097 -0.930969
7756862.554348 -370683.280520 -1.945050 -0.365578 -0.930781
7756862.385645 -370683.709727 -1.945553 -0.366046 -0.930597
7756862.216820 -370684.138612 -1.946056 -0.366514 -0.930412
7756862.049495 -370684.563219 -1.945747 -0.366227 -0.930526
7756861.881697 -370684.989221 -1.946308 -0.366749 -0.930320
7756861.716314 -370685.408393 -1.946878 -0.367279 -0.930111
7756861.550131 -370685.828898 -1.947068 -0.367456 -0.930041
7756861.384705 -370686.247267 -1.947231 -0.367607 -0.929981
7756861.220192 -370686.663112 -1.947797 -0.368133 -0.929773
7756861.059795 -370687.073549 -1.948209 -0.368517 -0.929621
7756860.897189 -370687.483479 -1.948677 -0.368952 -0.929449
7756860.735440 -370687.890613 -1.949251 -0.369485 -0.929237
7756860.573983 -370688.296317 -1.949651 -0.369856 -0.929089
7756860.413672 -370688.698635 -1.949916 -0.370103 -0.928991
7756860.253675 -370689.099831 -1.950641 -0.370776 -0.928722
7756860.094280 -370689.498571 -1.951015 -0.371124 -0.928583
7756859.935511 -370689.895212 -1.951642 -0.371706 -0.928351
7756859.777592 -370690.288884 -1.952373 -0.372384 -0.928079
7756859.619763 -370690.681421 -1.953855 -0.373759 -0.927526
7756859.462162 -370691.071553 -1.955621 -0.375397 -0.926864
7756859.304359 -370691.460091 -1.957616 -0.377245 -0.926113
7756859.147005 -370691.845140 -1.958738 -0.378284 -0.925690
7756858.990133 -370692.227664 -1.960576 -0.379984 -0.924993
7756858.832751 -370692.609317 -1.962387 -0.381659 -0.924303
7756858.675149 -370692.989494 -1.964198 -0.383332 -0.923610
7756858.518306 -370693.365724 -1.967363 -0.386254 -0.922393
7756858.361997 -370693.737325 -1.970590 -0.389228 -0.921141
7756858.205339 -370694.106370 -1.973900 -0.392275 -0.919848
7756858.048640 -370694.472130 -1.977248 -0.395353 -0.918529
7756857.891602 -370694.835184 -1.980637 -0.398464 -0.917184
7756857.732965 -370695.198141 -1.983912 -0.401464 -0.915875
7756857.561883 -370695.553741 -1.987468 -0.404719 -0.914441
7756857.402289 -370695.912154 -1.990476 -0.407468 -0.913219
7756857.241642 -370696.270224 -1.993492 -0.410220 -0.911986
7756857.079046 -370696.630187 -1.996569 -0.413025 -0.910720
7756856.917666 -370696.984540 -2.000191 -0.416320 -0.909218
7756856.755396 -370697.336861 -2.004656 -0.420376 -0.907350
7756856.590058 -370697.691416 -2.008499 -0.423860 -0.905728
7756856.425464 -370698.040989 -2.013225 -0.428136 -0.903714
7756856.260027 -370698.387905 -2.017166 -0.431694 -0.902020
7756856.092047 -370698.736200 -2.021978 -0.436030 -0.899932
7756855.920443 -370699.087371 -2.027361 -0.440867 -0.897572
7756855.748108 -370699.435128 -2.032935 -0.445864 -0.895101
7756855.574032 -370699.781147 -2.039354 -0.451600 -0.892221
7756855.397527 -370700.122390 -2.046919 -0.458336 -0.888779
7756855.220380 -370700.457926 -2.055151 -0.465637 -0.884976
7756855.042776 -370700.789658 -2.064527 -0.473915 -0.880571
7756854.857343 -370701.129075 -2.075018 -0.483126 -0.875551
7756854.668517 -370701.465601 -2.086571 -0.493209 -0.869911
7756854.475278 -370701.800462 -2.099539 -0.504448 -0.863442
7756854.278274 -370702.131472 -2.113670 -0.516598 -0.856228
7756854.075721 -370702.456355 -2.128739 -0.529442 -0.848346
7756853.869626 -370702.780368 -2.144462 -0.542715 -0.839917
7756853.656575 -370703.099392 -2.160408 -0.556039 -0.831156
7756853.438349 -370703.414487 -2.176615 -0.569435 -0.822036
7756853.217402 -370703.727541 -2.192789 -0.582655 -0.812719
7756852.989073 -370704.036190 -2.208634 -0.595459 -0.803385
7756852.757615 -370704.342900 -2.224367 -0.608025 -0.793918
7756852.521616 -370704.645636 -2.239849 -0.620244 -0.784409
7756852.280494 -370704.945010 -2.255468 -0.632419 -0.774627
7756852.034480 -370705.240820 -2.270719 -0.644159 -0.764892
7756851.786180 -370705.530683 -2.286162 -0.655893 -0.754854
7756851.530304 -370705.820229 -2.302915 -0.668447 -0.743760
7756851.273227 -370706.101601 -2.319242 -0.680501 -0.732748
7756851.008807 -370706.381690 -2.335607 -0.692400 -0.721514
7756850.738888 -370706.658426 -2.351804 -0.703995 -0.710204
7756850.464173 -370706.923986 -2.365867 -0.713913 -0.700234
7756850.186494 -370707.191928 -2.380190 -0.723869 -0.689937
7756849.906794 -370707.454402 -2.395717 -0.734494 -0.678615
7756849.621923 -370707.713556 -2.408948 -0.743408 -0.668838
7756849.334576 -370707.968090 -2.423670 -0.753174 -0.657821
7756849.043668 -370708.218455 -2.438141 -0.762614 -0.646854
7756848.751854 -370708.462517 -2.451903 -0.771444 -0.636298
7756848.456319 -370708.702971 -2.465238 -0.779860 -0.625954
7756848.157447 -370708.939446 -2.477918 -0.787734 -0.616016
7756847.853435 -370709.174121 -2.490448 -0.795390 -0.606098
7756847.546741 -370709.404766 -2.501823 -0.802233 -0.597011
7756847.238234 -370709.631579 -2.513384 -0.809082 -0.587696
7756846.927076 -370709.854729 -2.524312 -0.815456 -0.578820
7756846.613888 -370710.074397 -2.534978 -0.821583 -0.570089
7756846.301030 -370710.289091 -2.545294 -0.827420 -0.561583
7756845.982175 -370710.503034 -2.555126 -0.832901 -0.553422
7756845.662116 -370710.713399 -2.565105 -0.838382 -0.545083
7756845.342043 -370710.919242 -2.574445 -0.843437 -0.537228
7756845.019198 -370711.122665 -2.584212 -0.848644 -0.528965
7756844.696026 -370711.321951 -2.593806 -0.853679 -0.520799
7756844.370777 -370711.518188 -2.602163 -0.858002 -0.513647
7756844.040070 -370711.713943 -2.611203 -0.862610 -0.505869
7756843.705556 -370711.908033 -2.620443 -0.867247 -0.497878
7756843.370969 -370712.098133 -2.629320 -0.871633 -0.490159
7756843.036186 -370712.284508 -2.637830 -0.875773 -0.482724
7756842.704409 -370712.465681 -2.646507 -0.879928 -0.475107
7756842.369024 -370712.645121 -2.653692 -0.883319 -0.468772
7756842.031351 -370712.822758 -2.660857 -0.886655 -0.462432
7756841.689066 -370712.999780 -2.667621 -0.889762 -0.456424
7756841.350755 -370713.172017 -2.673668 -0.892506 -0.451035
7756841.012095 -370713.341956 -2.679230 -0.895001 -0.446064
7756840.673129 -370713.509838 -2.684103 -0.897164 -0.441698
7756840.331129 -370713.677273 -2.688401 -0.899054 -0.437837
7756839.985735 -370713.844677 -2.692088 -0.900662 -0.434520
7756839.639633 -370714.010852 -2.697778 -0.903120 -0.429388
7756839.293402 -370714.172083 -2.701086 -0.904536 -0.426397
7756838.948430 -370714.334111 -2.703647 -0.905625 -0.424080
7756838.603290 -370714.495246 -2.705645 -0.906470 -0.422269
7756838.254831 -370714.657206 -2.707967 -0.907448 -0.420164
7756837.908445 -370714.817353 -2.709397 -0.908048 -0.418866
7756837.558447 -370714.978615 -2.710639 -0.908568 -0.417737
7756837.215164 -370715.136427 -2.710656 -0.908575 -0.417722
7756836.873991 -370715.293294 -2.711041 -0.908736 -0.417372
7756836.530600 -370715.451267 -2.709699 -0.908175 -0.418591
7756836.191769 -370715.607805 -2.707789 -0.907373 -0.420325
7756835.848332 -370715.767268 -2.706538 -0.906847 -0.421460
7756835.506728 -370715.926346 -2.704425 -0.905954 -0.423375
7756835.167616 -370716.085551 -2.700837 -0.904430 -0.426623
7756834.832394 -370716.244449 -2.697029 -0.902798 -0.430064
7756834.498824 -370716.402301 -2.693738 -0.901378 -0.433033
7756834.167256 -370716.562447 -2.689746 -0.899642 -0.436627
7756833.835640 -370716.724321 -2.685169 -0.897634 -0.440741
7756833.506667 -370716.886873 -2.681035 -0.895805 -0.444447
7756833.184398 -370717.051657 -2.676597 -0.893823 -0.448419
7756832.859592 -370717.215465 -2.671789 -0.891657 -0.452711
7756832.533275 -370717.381969 -2.666701 -0.889342 -0.457242
7756832.208027 -370717.550107 -2.661038 -0.886739 -0.462271
7756831.882918 -370717.724393 -2.655724 -0.884269 -0.466977
7756831.561346 -370717.893139 -2.649888 -0.881529 -0.472129
7756831.244346 -370718.063985 -2.643675 -0.878579 -0.477597
7756830.929951 -370718.236688 -2.636989 -0.875366 -0.483461
7756830.619278 -370718.409828 -2.629916 -0.871925 -0.489640
7756830.311413 -370718.586031 -2.622789 -0.868413 -0.495842
7756830.012276 -370718.763566 -2.614902 -0.864475 -0.502675
7756829.710523 -370718.942297 -2.606883 -0.860417 -0.509591
7756829.406634 -370719.124143 -2.598332 -0.856028 -0.516930
7756829.107577 -370719.307236 -2.589663 -0.851514 -0.524331
7756828.810052 -370719.492364 -2.580314 -0.846575 -0.532269
7756828.515221 -370719.679661 -2.570974 -0.841567 -0.540153
7756828.215064 -370719.872675 -2.562871 -0.837163 -0.546954
7756827.917071 -370720.069248 -2.553842 -0.832190 -0.554490
7756827.625638 -370720.265566 -2.545003 -0.827256 -0.561825
7756827.329041 -370720.469758 -2.535762 -0.822029 -0.569445
7756827.041702 -370720.672519 -2.526509 -0.816725 -0.577027
7756826.756982 -370720.876059 -2.516830 -0.811102 -0.584905
7756826.474756 -370721.082027 -2.506663 -0.805113 -0.593121
7756826.194182 -370721.291253 -2.495851 -0.798653 -0.601791
7756825.917263 -370721.502476 -2.484755 -0.791927 -0.610615
7756825.643156 -370721.716506 -2.473713 -0.785137 -0.619322
7756825.373620 -370721.936123 -2.462597 -0.778204 -0.628012
7756825.111785 -370722.161947 -2.451677 -0.771300 -0.636472
7756824.844131 -370722.385587 -2.441197 -0.764587 -0.644520
7756824.593661 -370722.621267 -2.430806 -0.757849 -0.652430
7756824.339912 -370722.855262 -2.420410 -0.751025 -0.660274
7756824.081820 -370723.084931 -2.410219 -0.744258 -0.667892
7756823.823691 -370723.319253 -2.400232 -0.737550 -0.675292
7756823.569843 -370723.557928 -2.389689 -0.730390 -0.683030
7756823.322475 -370723.812141 -2.378713 -0.722849 -0.691006
7756823.074408 -370724.055281 -2.367857 -0.715305 -0.698812
7756822.829898 -370724.308996 -2.357044 -0.707707 -0.706506
7756822.590072 -370724.564550 -2.345827 -0.699738 -0.714400
7756822.348787 -370724.825816 -2.334303 -0.691459 -0.722416
7756822.112797 -370725.075672 -2.322596 -0.682955 -0.730461
7756821.877245 -370725.331129 -2.310182 -0.673834 -0.738883
7756821.646168 -370725.588112 -2.297190 -0.664178 -0.747575
7756821.418172 -370725.848498 -2.283706 -0.654037 -0.756462
7756821.193377 -370726.112389 -2.269001 -0.642844 -0.765997
7756820.973239 -370726.378785 -2.255411 -0.632375 -0.774663
7756820.757224 -370726.647619 -2.241138 -0.621254 -0.783609
7756820.545055 -370726.919599 -2.226423 -0.609656 -0.792666
7756820.336352 -370727.195460 -2.210529 -0.596981 -0.802256
7756820.132640 -370727.473940 -2.195937 -0.585212 -0.810881
7756819.933568 -370727.754513 -2.180576 -0.572687 -0.819774
7756819.738842 -370728.038056 -2.164561 -0.559485 -0.828841
7756819.548613 -370728.324824 -2.148443 -0.546054 -0.837750
7756819.363792 -370728.613463 -2.132173 -0.532352 -0.846523
7756819.184985 -370728.903044 -2.115738 -0.518368 -0.855158
7756819.011463 -370729.194759 -2.098974 -0.503960 -0.863727
7756818.843045 -370729.489214 -2.084150 -0.491101 -0.871102
7756818.678691 -370729.787047 -2.068581 -0.477480 -0.878643
7756818.519331 -370730.086784 -2.052978 -0.463713 -0.885985
7756818.364318 -370730.389784 -2.036422 -0.448982 -0.893541
7756818.215482 -370730.692971 -2.019087 -0.433425 -0.901189
7756818.087904 -370731.002592 -2.002399 -0.418327 -0.908296
7756817.949058 -370731.311894 -1.984109 -0.401646 -0.915795
7756817.821424 -370731.632398 -1.965630 -0.384655 -0.923061
7756817.700090 -370731.951156 -1.947302 -0.367674 -0.929955
7756817.578815 -370732.266400 -1.928795 -0.350400 -0.936600
7756817.463683 -370732.583000 -1.910388 -0.333102 -0.942891
7756817.354621 -370732.901099 -1.892292 -0.315986 -0.948764
7756817.250989 -370733.222139 -1.874593 -0.299145 -0.954208
7756817.153003 -370733.544700 -1.856902 -0.282218 -0.959350
7756817.060335 -370733.870088 -1.839765 -0.265738 -0.964045
7756816.972827 -370734.198130 -1.823307 -0.249836 -0.968288
7756816.891313 -370734.526064 -1.806302 -0.233335 -0.972396
7756816.815353 -370734.853678 -1.790753 -0.218187 -0.975907
7756816.744563 -370735.181258 -1.776619 -0.204373 -0.978893
7756816.678306 -370735.510703 -1.762261 -0.190297 -0.981727
7756816.616654 -370735.841241 -1.749380 -0.177636 -0.984096
7756816.558704 -370736.174635 -1.736466 -0.164913 -0.986308
7756816.504990 -370736.509242 -1.724200 -0.152803 -0.988257
7756816.455405 -370736.843784 -1.711702 -0.140440 -0.990089
7756816.409673 -370737.181423 -1.699776 -0.128622 -0.991694
7756816.370480 -370737.517466 -1.687081 -0.116023 -0.993247
7756816.341233 -370737.857792 -1.674960 -0.103975 -0.994580
7756816.309684 -370738.196456 -1.662953 -0.092026 -0.995757
7756816.285629 -370738.540119 -1.651089 -0.080206 -0.996778
7756816.265817 -370738.881937 -1.639424 -0.068574 -0.997646
7756816.244497 -370739.222880 -1.627124 -0.056298 -0.998414
7756816.227257 -370739.565423 -1.615341 -0.044530 -0.999008
7756816.213979 -370739.908975 -1.603588 -0.032785 -0.999462
7756816.204687 -370740.253026 -1.591550 -0.020752 -0.999785
7756816.199423 -370740.597917 -1.580677 -0.009881 -0.999951
7756816.197817 -370740.946863 -1.570174 0.000622 -1.000000
7756816.199927 -370741.298458 -1.558698 0.012098 -0.999927
7756816.205900 -370741.646449 -1.548542 0.022253 -0.999752
7756816.215364 -370741.995557 -1.538884 0.031906 -0.999491
7756816.228235 -370742.345343 -1.528957 0.041827 -0.999125
7756816.244555 -370742.695335 -1.519455 0.051319 -0.998682
7756816.264253 -370743.046174 -1.509965 0.060794 -0.998150
7756816.287333 -370743.397516 -1.500419 0.070319 -0.997525
7756816.314093 -370743.752511 -1.492157 0.078558 -0.996910
7756816.346194 -370744.108543 -1.482906 0.087777 -0.996140
7756816.378959 -370744.461038 -1.473323 0.097319 -0.995253
7756816.415090 -370744.813262 -1.464515 0.106082 -0.994357
7756816.455213 -370745.167266 -1.455178 0.115361 -0.993324
7756816.498354 -370745.523691 -1.445963 0.124510 -0.992218
7756816.545052 -370745.881722 -1.436688 0.133707 -0.991021
7756816.595151 -370746.240115 -1.427160 0.143143 -0.989702
7756816.648713 -370746.598582 -1.417813 0.152387 -0.988321
7756816.705642 -370746.956813 -1.408601 0.161485 -0.986875
7756816.765348 -370747.311593 -1.400143 0.169826 -0.985474
7756816.828825 -370747.670245 -1.391108 0.178723 -0.983899
7756816.895963 -370748.030389 -1.381971 0.187705 -0.982225
7756816.966293 -370748.389528 -1.372855 0.196651 -0.980473
7756817.040371 -370748.750195 -1.364285 0.205046 -0.978752
7756817.117501 -370749.109933 -1.355596 0.213543 -0.976934
7756817.198522 -370749.472157 -1.345845 0.223059 -0.974805
7756817.283287 -370749.834084 -1.337159 0.231517 -0.972831
7756817.371827 -370750.197493 -1.327802 0.240610 -0.970622
7756817.463389 -370750.558567 -1.317067 0.251016 -0.967983
7756817.558985 -370750.919154 -1.307281 0.260476 -0.965480
7756817.658188 -370751.279091 -1.296455 0.270913 -0.962604
7756817.761245 -370751.637860 -1.285710 0.281240 -0.959637
7756817.868784 -370751.997866 -1.275647 0.290883 -0.956759
7756817.980851 -370752.359749 -1.265248 0.300816 -0.953682
7756818.096927 -370752.721185 -1.254895 0.310673 -0.950517
7756818.222819 -370753.082545 -1.244917 0.320142 -0.947370
7756818.346078 -370753.441611 -1.235393 0.329150 -0.944278
7756818.472573 -370753.799255 -1.226324 0.337700 -0.941254
7756818.602807 -370754.157350 -1.216988 0.346473 -0.938060
7756818.737108 -370754.516080 -1.208159 0.354741 -0.934965
7756818.875492 -370754.876161 -1.200137 0.362231 -0.932089
7756819.016912 -370755.235333 -1.191258 0.370491 -0.928836
7756819.161537 -370755.589633 -1.183310 0.377862 -0.925862
7756819.309860 -370755.947333 -1.174893 0.385642 -0.922649
7756819.461668 -370756.302739 -1.166723 0.393167 -0.919467
7756819.616413 -370756.660182 -1.158419 0.400789 -0.916170
7756819.774275 -370757.016870 -1.149879 0.408598 -0.912715
7756819.935619 -370757.373524 -1.141930 0.415840 -0.909438
7756820.099272 -370757.727837 -1.134330 0.422740 -0.906251
7756820.265486 -370758.083935 -1.126889 0.429471 -0.903081
7756820.436594 -370758.440578 -1.120048 0.435639 -0.900121
7756820.611099 -370758.797941 -1.113053 0.441925 -0.897052
7756820.787318 -370759.152601 -1.106804 0.447522 -0.894273
7756820.966278 -370759.507218 -1.100061 0.453542 -0.891235
7756821.147835 -370759.861014 -1.093752 0.459155 -0.888356
7756821.331136 -370760.212778 -1.087089 0.465065 -0.885277
7756821.518896 -370760.567300 -1.080391 0.470983 -0.882142
7756821.708342 -370760.919374 -1.073975 0.476634 -0.879102
7756821.900804 -370761.271529 -1.067274 0.482514 -0.875888
7756822.095788 -370761.622763 -1.060831 0.488147 -0.872762
7756822.292551 -370761.971854 -1.054570 0.493602 -0.869688
7756822.494023 -370762.324045 -1.047793 0.499484 -0.866323
7756822.696733 -370762.672869 -1.041877 0.504601 -0.863353
7756822.902987 -370763.022954 -1.035626 0.509987 -0.860182
7756823.110767 -370763.370729 -1.028876 0.515782 -0.856720
7756823.321451 -370763.717855 -1.022594 0.521154 -0.853463
7756823.535086 -370764.065067 -1.015833 0.526912 -0.849920
7756823.752538 -370764.413186 -1.009062 0.532655 -0.846332
7756823.973266 -370764.761266 -1.002259 0.538400 -0.842689
7756824.197465 -370765.109546 -0.995419 0.544151 -0.838987
7756824.423996 -370765.456229 -0.988618 0.549845 -0.835267
7756824.652859 -370765.801374 -0.981959 0.555394 -0.831587
7756824.883617 -370766.144481 -0.975513 0.560743 -0.827990
7756825.117916 -370766.488098 -0.969214 0.565948 -0.824441
7756825.356472 -370766.833331 -0.963077 0.570997 -0.820952
7756825.599252 -370767.180203 -0.957253 0.575768 -0.817613
7756825.843525 -370767.525127 -0.951977 0.580074 -0.814564
7756826.088892 -370767.867957 -0.947353 0.583834 -0.811873
7756826.337079 -370768.211668 -0.943511 0.586949 -0.809624
7756826.587339 -370768.555665 -0.940302 0.589544 -0.807736
7756826.838386 -370768.898639 -0.937597 0.591727 -0.806138
7756827.090992 -370769.241855 -0.935057 0.593773 -0.804633
7756827.345654 -370769.585940 -0.932221 0.596052 -0.802946
7756827.601645 -370769.929905 -0.929783 0.598008 -0.801490
7756827.861060 -370770.276743 -0.927457 0.599871 -0.800097
7756828.122161 -370770.624191 -0.925270 0.601619 -0.798783
7756828.383986 -370770.970867 -0.922953 0.603468 -0.797387
7756828.648388 -370771.319559 -0.921179 0.604882 -0.796315
7756828.914212 -370771.668972 -0.919712 0.606049 -0.795427
7756829.181691 -370772.019576 -0.918544 0.606978 -0.794719
7756829.448513 -370772.368693 -0.917035 0.608177 -0.793802
7756829.713836 -370772.714490 -0.915490 0.609402 -0.792861
7756829.981175 -370773.061838 -0.914346 0.610309 -0.792164
7756830.249859 -370773.410654 -0.913853 0.610700 -0.791862
7756830.520653 -370773.761965 -0.914041 0.610550 -0.791978
7756830.791917 -370774.114168 -0.913882 0.610676 -0.791880
7756831.057331 -370774.459134 -0.915045 0.609755 -0.792590
7756831.325701 -370774.809594 -0.915585 0.609327 -0.792919
7756831.595379 -370775.164046 -0.915713 0.609225 -0.792997
7756831.865561 -370775.516215 -0.915868 0.609103 -0.793091
7756832.136810 -370775.869315 -0.915635 0.609287 -0.792950
7756832.409865 -370776.224592 -0.915400 0.609474 -0.792806
7756832.681948 -370776.578924 -0.914922 0.609853 -0.792515
7756832.955832 -370776.935299 -0.914466 0.610213 -0.792237
7756833.224371 -370777.295948 -0.913657 0.610855 -0.791743
7756833.501521 -370777.655170 -0.912681 0.611627 -0.791146
7756833.780102 -370778.015418 -0.912417 0.611835 -0.790985
7756834.059655 -370778.376736 -0.912184 0.612020 -0.790842
7756834.338994 -370778.737622 -0.911994 0.612170 -0.790726
7756834.618489 -370779.098553 -0.912506 0.611765 -0.791039
7756834.898430 -370779.460429 -0.912913 0.611443 -0.791288
7756835.178309 -370779.825572 -0.912700 0.611612 -0.791158
7756835.459858 -370780.189680 -0.913245 0.611181 -0.791491
7756835.742242 -370780.555315 -0.913095 0.611300 -0.791399
7756836.026358 -370780.923082 -0.912951 0.611413 -0.791312
7756836.309096 -370781.288955 -0.912563 0.611720 -0.791074
7756836.592549 -370781.655462 -0.912421 0.611833 -0.790987
7756836.878295 -370782.024953 -0.911253 0.612756 -0.790272
7756837.166045 -370782.396007 -0.911098 0.612879 -0.790177
7756837.447741 -370782.768586 -0.911292 0.612725 -0.790296
7756837.735409 -370783.139803 -0.911211 0.612789 -0.790247
7756838.023615 -370783.511614 -0.910807 0.613108 -0.789999
7756838.314115 -370783.885784 -0.910436 0.613401 -0.789771
7756838.605178 -370784.260392 -0.910072 0.613689 -0.789548
7756838.897690 -370784.636603 -0.909756 0.613938 -0.789354
7756839.190076 -370785.012426 -0.909509 0.614134 -0.789202
7756839.481008 -370785.386221 -0.909331 0.614273 -0.789093
7756839.773354 -370785.761750 -0.909302 0.614297 -0.789075
7756840.066100 -370786.137807 -0.909379 0.614236 -0.789123
7756840.358567 -370786.513626 -0.909600 0.614062 -0.789258
7756840.652356 -370786.891340 -0.909874 0.613845 -0.789426
7756840.946819 -370787.270156 -0.910199 0.613589 -0.789626
7756841.241978 -370787.650123 -0.910518 0.613337 -0.789821
7756841.538980 -370788.032673 -0.910720 0.613177 -0.789945
7756841.835091 -370788.414183 -0.910799 0.613115 -0.789994
7756842.131986 -370788.796737 -0.910813 0.613103 -0.790003
7756842.427821 -370789.177935 -0.910827 0.613092 -0.790011
7756842.724872 -370789.560710 -0.910841 0.613081 -0.790020
7756843.022524 -370789.944272 -0.910855 0.613071 -0.790028
7756843.318541 -370790.328142 -0.910927 0.613014 -0.790072
7756843.618048 -370790.714163 -0.910939 0.613004 -0.790080
7756843.918024 -370791.100762 -0.910705 0.613189 -0.789936
7756844.219227 -370791.488790 -0.910717 0.613180 -0.789943
7756844.521047 -370791.877622 -0.910728 0.613171 -0.789950
7756844.822237 -370792.265549 -0.910529 0.613328 -0.789828
7756845.123228 -370792.653163 -0.910541 0.613319 -0.789835
7756845.425661 -370793.042642 -0.910552 0.613310 -0.789842
7756845.729723 -370793.434228 -0.910562 0.613302 -0.789849
7756846.034264 -370793.826324 -0.909727 0.613962 -0.789336
7756846.338817 -370794.217864 -0.909707 0.613977 -0.789324
7756846.644683 -370794.611068 -0.909658 0.614016 -0.789294
7756846.953063 -370795.007446 -0.909577 0.614080 -0.789244
7756847.261075 -370795.403290 -0.909525 0.614120 -0.789212
7756847.568200 -370795.797972 -0.909505 0.614137 -0.789200
7756847.875397 -370796.192729 -0.909484 0.614153 -0.789187
7756848.183682 -370796.588839 -0.909389 0.614228 -0.789129
7756848.492070 -370796.984996 -0.909278 0.614316 -0.789060
7756848.800780 -370797.381531 -0.910045 0.613710 -0.789531
7756849.109623 -370797.778967 -0.909937 0.613796 -0.789465
7756849.419116 -370798.177237 -0.909779 0.613920 -0.789368
7756849.731251 -370798.578738 -0.909493 0.614146 -0.789193
7756850.041913 -370798.977900 -0.909379 0.614236 -0.789123
7756850.351884 -370799.376057 -0.909208 0.614371 -0.789018
7756850.664831 -370799.777916 -0.909090 0.614464 -0.788945
7756850.978529 -370800.180642 -0.908973 0.614556 -0.788873
7756851.292950 -370800.584198 -0.908856 0.614648 -0.788801
7756851.606446 -370800.986470 -0.908740 0.614740 -0.788730
7756851.919627 -370801.388244 -0.908624 0.614831 -0.788659
7756852.234450 -370801.792025 -0.908507 0.614924 -0.788586
7756852.550784 -370802.197646 -0.908388 0.615018 -0.788513
7756852.868906 -370802.605460 -0.908267 0.615113 -0.788439
7756853.185792 -370803.011587 -0.908147 0.615207 -0.788365
7756853.501211 -370803.415735 -0.908029 0.615300 -0.788293
7756853.817839 -370803.821335 -0.907910 0.615394 -0.788219
7756854.136286 -370804.229163 -0.907790 0.615489 -0.788145
7756854.452513 -370804.634047 -0.907671 0.615583 -0.788072
7756854.770523 -370805.041323 -0.908528 0.614907 -0.788600
7756855.090369 -370805.451464 -0.908406 0.615004 -0.788524
7756855.409108 -370805.860586 -0.908164 0.615194 -0.788376
7756855.727665 -370806.268779 -0.908070 0.615269 -0.788317
7756856.047660 -370806.678739 -0.908001 0.615323 -0.788275
7756856.368465 -370807.089702 -0.907972 0.615346 -0.788257
7756856.689234 -370807.500595 -0.907942 0.615369 -0.788239
7756857.010319 -370807.912205 -0.907764 0.615510 -0.788129
7756857.332403 -370808.325141 -0.908007 0.615318 -0.788279
7756857.654701 -370808.738704 -0.908117 0.615231 -0.788347
7756857.978184 -370809.153196 -0.908086 0.615256 -0.788327
7756858.302504 -370809.568744 -0.908080 0.615261 -0.788324
7756858.625688 -370809.983490 -0.908408 0.615002 -0.788526
7756858.948441 -370810.397772 -0.908361 0.615039 -0.788497
7756859.274037 -370810.815475 -0.907398 0.615798 -0.787904
7756859.592400 -370811.233534 -0.907598 0.615640 -0.788027
7756859.917425 -370811.649639 -0.907757 0.615515 -0.788125
7756860.243743 -370812.067518 -0.907866 0.615430 -0.788192
7756860.572542 -370812.488711 -0.907777 0.615499 -0.788137
7756860.900625 -370812.908849 -0.907846 0.615445 -0.788180
7756861.226411 -370813.326082 -0.907859 0.615435 -0.788188
7756861.552866 -370813.744148 -0.907777 0.615499 -0.788137
7756861.880322 -370814.163370 -0.907574 0.615659 -0.788012
7756862.207406 -370814.581915 -0.907323 0.615857 -0.787858
7756862.535010 -370815.000904 -0.907064 0.616061 -0.787699
7756862.861831 -370815.419311 -0.907069 0.616057 -0.787701
7756863.188909 -370815.837420 -0.906842 0.616236 -0.787562
7756863.518237 -370816.258734 -0.906771 0.616292 -0.787518
7756863.849195 -370816.681543 -0.906539 0.616475 -0.787375
7756864.179215 -370817.102944 -0.906285 0.616674 -0.787219
7756864.508189 -370817.522784 -0.906025 0.616879 -0.787058
7756864.837207 -370817.942455 -0.905764 0.617084 -0.786897
7756865.166633 -370818.362422 -0.905503 0.617290 -0.786736
7756865.493372 -370818.786253 -0.905315 0.617438 -0.786619
7756865.823889 -370819.207042 -0.905219 0.617513 -0.786561
7756866.155518 -370819.629341 -0.904959 0.617717 -0.786400
7756866.486267 -370820.050310 -0.904729 0.617899 -0.786258
7756866.815706 -370820.469411 -0.904500 0.618079 -0.786116
7756867.147097 -370820.890797 -0.904269 0.618261 -0.785973
7756867.478376 -370821.311841 -0.904038 0.618442 -0.785830
7756867.811427 -370821.734935 -0.903804 0.618626 -0.785686
7756868.142963 -370822.155902 -0.903572 0.618808 -0.785542
7756868.473821 -370822.575801 -0.902569 0.619596 -0.784921
7756868.809030 -370823.000395 -0.902433 0.619702 -0.784837
7756869.143297 -370823.423675 -0.902297 0.619809 -0.784752
7756869.479754 -370823.849610 -0.902158 0.619918 -0.784666
7756869.813734 -370824.272288 -0.902022 0.620025 -0.784582
7756870.149086 -370824.696585 -0.901885 0.620132 -0.784497
7756870.486059 -370825.122811 -0.901746 0.620242 -0.784411
7756870.820838 -370825.546141 -0.901609 0.620349 -0.784326
7756871.156060 -370825.969913 -0.901473 0.620456 -0.784241
7756871.490742 -370826.392884 -0.901336 0.620563 -0.784157
7756871.825185 -370826.815435 -0.901205 0.620666 -0.784075
7756872.162872 -370827.241997 -0.901134 0.620721 -0.784032
7756872.496141 -370827.662932 -0.901102 0.620746 -0.784012
7756872.832503 -370828.087779 -0.901152 0.620707 -0.784042
7756873.167537 -370828.511030 -0.901278 0.620608 -0.784121
7756873.502903 -370828.934827 -0.901454 0.620470 -0.784230
7756873.839117 -370829.359869 -0.901680 0.620293 -0.784370
7756874.173846 -370829.783251 -0.901937 0.620092 -0.784529
7756874.510904 -370830.209804 -0.902194 0.619890 -0.784689
7756874.849355 -370830.638346 -0.902452 0.619687 -0.784849
7756875.184611 -370831.063067 -0.902708 0.619486 -0.785008
7756875.522601 -370831.491480 -0.902966 0.619284 -0.785167
7756875.857863 -370831.916658 -0.903223 0.619082 -0.785326
7756876.194974 -370832.344430 -0.902457 0.619683 -0.784852
7756876.530571 -370832.769588 -0.902714 0.619482 -0.785011
7756876.867802 -370833.197043 -0.902972 0.619280 -0.785171
7756877.206424 -370833.626552 -0.903148 0.619141 -0.785280
7756877.543418 -370834.054088 -0.903406 0.618939 -0.785439
7756877.881918 -370834.483762 -0.903664 0.618736 -0.785599
7756878.215269 -370834.907123 -0.903920 0.618534 -0.785758
7756878.550303 -370835.332860 -0.905344 0.617415 -0.786638
7756878.888599 -370835.764039 -0.906123 0.616802 -0.787119
7756879.224987 -370836.193428 -0.906381 0.616599 -0.787277
7756879.560574 -370836.621999 -0.905770 0.617080 -0.786901
7756879.896887 -370837.050979 -0.906028 0.616877 -0.787060
7756880.231821 -370837.478427 -0.906285 0.616674 -0.787218
7756880.567020 -370837.906439 -0.906543 0.616472 -0.787377
7756880.901956 -370838.334344 -0.906800 0.616269 -0.787536
7756881.236308 -370838.761729 -0.907057 0.616067 -0.787694
7756881.572200 -370839.191306 -0.907291 0.615882 -0.787838
7756881.908907 -370839.622127 -0.907528 0.615696 -0.787984
7756882.246543 -370840.054333 -0.907724 0.615541 -0.788105
7756882.585503 -370840.488404 -0.907916 0.615390 -0.788223
7756882.919983 -370840.916910 -0.908119 0.615229 -0.788348
7756883.255734 -370841.347228 -0.908327 0.615065 -0.788476
7756883.591727 -370841.778140 -0.907887 0.615413 -0.788205
7756883.927630 -370842.208441 -0.908079 0.615261 -0.788323
7756884.262009 -370842.636949 -0.908242 0.615133 -0.788423
7756884.597103 -370843.066814 -0.908463 0.614959 -0.788559
7756884.931312 -370843.495430 -0.908604 0.614847 -0.788646
7756885.265772 -370843.924493 -0.908746 0.614736 -0.788733
7756885.602111 -370844.356100 -0.908892 0.614620 -0.788823
7756885.933861 -370844.781910 -0.908950 0.614575 -0.788859
7756886.267432 -370845.210050 -0.908846 0.614656 -0.788795
7756886.600673 -370845.637589 -0.908576 0.614870 -0.788629
7756886.937232 -370846.069086 -0.908159 0.615198 -0.788373
7756887.272936 -370846.499079 -0.907687 0.615570 -0.788082
7756887.608082 -370846.927939 -0.907216 0.615941 -0.787792
7756887.941628 -370847.354343 -0.906750 0.616308 -0.787505
7756888.276956 -370847.782609 -0.906280 0.616678 -0.787215
7756888.612477 -370848.211134 -0.906372 0.616606 -0.787272
7756888.947922 -370848.639218 -0.905902 0.616976 -0.786982
7756889.283548 -370849.067719 -0.905851 0.617016 -0.786950
7756889.621106 -370849.498026 -0.905349 0.617411 -0.786641
7756889.957900 -370849.927404 -0.905783 0.617070 -0.786909
7756890.294625 -370850.356556 -0.905229 0.617505 -0.786567
7756890.631307 -370850.785192 -0.904724 0.617903 -0.786255
7756890.968557 -370851.214945 -0.904492 0.618085 -0.786111
7756891.306616 -370851.644679 -0.903984 0.618485 -0.785797
7756891.645367 -370852.074845 -0.903483 0.618878 -0.785487
7756891.982739 -370852.502835 -0.903011 0.619249 -0.785195
7756892.321573 -370852.932259 -0.902535 0.619622 -0.784900
7756892.662168 -370853.363491 -0.902056 0.619998 -0.784603
7756892.999408 -370853.790060 -0.901585 0.620368 -0.784311
7756893.339248 -370854.219499 -0.901109 0.620741 -0.784016
7756893.679605 -370854.648955 -0.901068 0.620773 -0.783990
7756894.019983 -370855.078654 -0.900681 0.621076 -0.783750
7756894.360275 -370855.507926 -0.900360 0.621328 -0.783551
7756894.697148 -370855.931924 -0.900390 0.621304 -0.783569
7756895.035293 -370856.358292 -0.900184 0.621466 -0.783441
7756895.373501 -370856.784558 -0.899978 0.621627 -0.783313
7756895.713534 -370857.212929 -0.899723 0.621827 -0.783155
7756896.054670 -370857.642448 -0.899447 0.622043 -0.782983
7756896.393893 -370858.069331 -0.899219 0.622221 -0.782841
7756896.736247 -370858.499966 -0.899008 0.622386 -0.782710
