-1.379335 0.197600 0.080419
-1.369442 0.193244 0.116402
-1.349731 0.187595 0.151164
-1.329153 0.181899 0.184913
-1.316596 0.177312 0.218799
-1.303186 0.172650 0.252099
-1.288945 0.167921 0.284790
-1.265155 0.162059 0.314987
-1.249366 0.157245 0.346173
-1.232817 0.152387 0.376694
-1.241253 0.150472 0.414186
-1.231561 0.146430 0.446775
-1.177912 0.137517 0.463758
-1.158570 0.132558 0.491423
-0.997073 0.112557 0.459494
-0.533560 0.061988 0.283330
-0.388976 0.046005 0.231094
-0.296281 0.035863 0.196392
-0.252055 0.030842 0.182228
-0.217400 0.026937 0.170848
-0.183516 0.023276 0.157750
-0.165512 0.021187 0.152760
-0.147896 0.019222 0.146906
-0.130700 0.017382 0.140205
-0.120288 0.016172 0.137542
-0.096923 0.014025 0.123712
-0.094857 0.013574 0.126247
-0.092724 0.013124 0.128726
-0.084007 0.012238 0.124958
-0.075550 0.011417 0.120794
-0.073560 0.011035 0.122766
-0.071518 0.010654 0.124684
-0.069426 0.010276 0.126548
-0.067285 0.009900 0.128355
-0.065096 0.009528 0.130105
-0.062861 0.009159 0.131796
-0.055479 0.008609 0.126016
-0.053351 0.008279 0.127456
-0.055898 0.008079 0.136505
-0.053495 0.007728 0.137950
-0.055361 0.007451 0.147234
-0.048578 0.007044 0.140647
-0.046066 0.006711 0.141897
-0.043522 0.006384 0.143080
-0.040947 0.006065 0.144196
-0.031858 0.005889 0.128453
-0.029666 0.005635 0.129268
-0.027453 0.005388 0.130025
-0.025221 0.005147 0.130723
-0.022970 0.004913 0.131363
-0.020703 0.004686 0.131942
-0.018420 0.004466 0.132462
-0.016124 0.004254 0.132922
-0.013816 0.004050 0.133320
-0.011498 0.003853 0.133658
-0.009171 0.003665 0.133935
-0.006108 0.003795 0.125186
-0.004003 0.003640 0.125324
-0.001636 0.003837 0.116418
0.000238 0.003713 0.116442
0.002113 0.003596 0.116418
0.003090 0.004262 0.098383
0.005175 0.003785 0.107255
0.006808 0.003702 0.107105
0.008438 0.003625 0.106911
0.008676 0.003988 0.097792
0.010060 0.003933 0.097553
0.011439 0.003883 0.097277
0.012810 0.003839 0.096965
0.014172 0.003801 0.096618
0.015525 0.003768 0.096234
0.016868 0.003740 0.095815
0.018200 0.003719 0.095361
0.019519 0.003702 0.094872
0.020825 0.003691 0.094348
0.022118 0.003685 0.093790
0.023395 0.003685 0.093199
0.024656 0.003690 0.092574
0.025901 0.003700 0.091916
0.031614 0.003236 0.099013
0.033026 0.003260 0.098170
0.034415 0.003290 0.097290
0.040866 0.002858 0.103785
0.042401 0.002905 0.102697
0.043906 0.002959 0.101570
0.045382 0.003019 0.100403
0.046826 0.003085 0.099199
0.048238 0.003157 0.097956
0.049617 0.003235 0.096677
0.050962 0.003319 0.095363
0.052272 0.003408 0.094013
0.053546 0.003502 0.092629
0.054783 0.003602 0.091213
0.069962 0.002983 0.101080
0.071416 0.003119 0.099231
0.072820 0.003262 0.097344
0.074175 0.003409 0.095420
0.067932 0.003866 0.088566
0.076729 0.003720 0.091470
0.070135 0.004154 0.084951
0.071164 0.004305 0.083102
0.080162 0.004221 0.085307
0.081197 0.004395 0.083194
0.082176 0.004574 0.081056
0.083098 0.004755 0.078892
0.083963 0.004940 0.076704
0.084770 0.005127 0.074495
0.085518 0.005316 0.072264
0.086207 0.005507 0.070015
0.086837 0.005700 0.067748
0.087407 0.005894 0.065466
0.087916 0.006089 0.063168
0.088365 0.006285 0.060858
0.088753 0.006481 0.058537
0.098003 0.006685 0.057377
0.098295 0.006900 0.054804
0.107492 0.007162 0.052927
0.116651 0.007462 0.050574
0.125754 0.007798 0.047746
0.143781 0.008276 0.044442
-1.208120 -0.316460 0.048086
-1.198252 -0.316549 0.080505
-1.187578 -0.316394 0.112428
-1.176119 -0.315998 0.143834
-1.163896 -0.315360 0.174703
-1.150928 -0.314482 0.205013
-1.137239 -0.313365 0.234746
-1.131357 -0.314426 0.265549
-1.022261 -0.285925 0.273241
-0.458176 -0.125485 0.159968
-0.378839 -0.103504 0.150920
-0.375793 -0.103557 0.161161
-0.380690 -0.105961 0.174127
-0.377054 -0.105851 0.184424
-0.365125 -0.103235 0.191377
-0.353121 -0.100546 0.197790
-0.348913 -0.100201 0.207346
-0.321219 -0.092574 0.205102
-0.254857 -0.072726 0.180484
-0.213521 -0.060409 0.165798
-0.195427 -0.055263 0.162524
-0.170382 -0.047789 0.153633
-0.153135 -0.042705 0.148385
-0.129262 -0.035358 0.137161
-0.119141 -0.032415 0.134738
-0.109999 -0.029743 0.132442
-0.094455 -0.024864 0.124032
-0.092369 -0.024469 0.126560
-0.090222 -0.024048 0.129032
-0.075709 -0.019325 0.119025
-0.073770 -0.018920 0.121043
-0.071783 -0.018493 0.123009
-0.069748 -0.018043 0.124920
-0.067669 -0.017573 0.126777
-0.065545 -0.017080 0.128577
-0.063380 -0.016566 0.130319
-0.061174 -0.016031 0.132003
-0.058928 -0.015475 0.133626
-0.056645 -0.014898 0.135189
-0.054326 -0.014301 0.136689
-0.051973 -0.013683 0.138126
-0.045621 -0.011434 0.131583
-0.047171 -0.012389 0.140807
-0.044725 -0.011714 0.142049
-0.042252 -0.011019 0.143223
-0.039753 -0.010306 0.144331
-0.037231 -0.009575 0.145369
-0.034686 -0.008827 0.146339
-0.029616 -0.006867 0.138677
-0.027248 -0.006151 0.139437
-0.024866 -0.005420 0.140132
-0.020617 -0.003680 0.132011
-0.018428 -0.002990 0.132523
-0.016230 -0.002288 0.132975
-0.015215 -0.002356 0.142253
-0.011813 -0.000848 0.133696
-0.009597 -0.000112 0.133965
-0.007377 0.000634 0.134173
-0.005156 0.001390 0.134320
-0.002782 0.002971 0.116424
-0.001008 0.003589 0.116442
0.000763 0.004214 0.116411
0.001939 0.005017 0.107352
0.003480 0.005574 0.107239
0.003981 0.006147 0.098142
0.005291 0.006631 0.097972
0.008066 0.007270 0.106642
0.007889 0.007609 0.097520
0.009177 0.008101 0.097240
0.010455 0.008596 0.096924
0.011723 0.009093 0.096572
0.012980 0.009591 0.096184
0.014226 0.010089 0.095760
0.015459 0.010589 0.095301
0.016678 0.011089 0.094808
0.017883 0.011588 0.094280
0.019073 0.012087 0.093718
0.024014 0.013655 0.101226
0.025365 0.014235 0.100492
0.022544 0.013577 0.091831
0.023665 0.014070 0.091137
0.029294 0.015962 0.098062
0.035267 0.018015 0.104703
0.036686 0.018661 0.103651
0.038077 0.019303 0.102558
0.039438 0.019939 0.101426
0.040769 0.020570 0.100255
0.042069 0.021193 0.099045
0.043337 0.021810 0.097798
0.044572 0.022419 0.096515
0.045773 0.023020 0.095196
0.046940 0.023612 0.093842
0.054393 0.026455 0.098448
0.049168 0.024768 0.091033
0.056819 0.027735 0.095216
0.057970 0.028357 0.093547
0.065923 0.031507 0.097105
0.067107 0.032170 0.095177
0.068241 0.032818 0.093215
0.069325 0.033450 0.091219
0.070358 0.034065 0.089191
0.071341 0.034663 0.087132
0.072271 0.035244 0.085044
0.073149 0.035807 0.082929
0.073974 0.036350 0.080786
0.074745 0.036875 0.078619
0.075463 0.037380 0.076429
0.076126 0.037864 0.074217
0.076734 0.038328 0.071984
0.085282 0.042044 0.072256
0.085830 0.042507 0.069760
0.078226 0.039590 0.065179
0.078612 0.039965 0.062880
0.087106 0.043747 0.062176
0.087408 0.044110 0.059621
0.095863 0.047939 0.058197
0.104289 0.051799 0.056297
0.112670 0.055681 0.053920
0.129239 0.063150 0.051505
0.137479 0.067074 0.047942
-0.998479 -0.719765 0.052061
-0.989184 -0.716206 0.083978
-0.979238 -0.712138 0.115397
-0.975870 -0.712899 0.147057
-0.964645 -0.707840 0.177652
-0.952819 -0.702293 0.207686
-0.947520 -0.701592 0.238604
-0.934508 -0.695088 0.267695
-0.927962 -0.693424 0.298095
-0.920782 -0.691273 0.328320
-0.885379 -0.667571 0.348824
-0.877206 -0.664543 0.377734
-0.793259 -0.603097 0.374944
-0.467925 -0.354095 0.256306
-0.329503 -0.248131 0.205719
-0.260134 -0.195136 0.181523
-0.204458 -0.152378 0.159900
-0.182570 -0.135891 0.154766
-0.161120 -0.119588 0.148286
-0.140150 -0.103502 0.140479
-0.125755 -0.092529 0.135915
-0.111701 -0.081718 0.130475
-0.103204 -0.075304 0.128573
-0.089806 -0.064823 0.121607
-0.082424 -0.059167 0.119146
-0.075233 -0.053608 0.116256
-0.073598 -0.052608 0.118648
-0.066694 -0.047193 0.115105
-0.065104 -0.046190 0.117218
-0.058519 -0.040950 0.113049
-0.061805 -0.044067 0.121292
-0.060100 -0.042948 0.123251
-0.058360 -0.041793 0.125155
-0.056585 -0.040600 0.127005
-0.050551 -0.035658 0.121773
-0.048866 -0.034500 0.123364
-0.047153 -0.033311 0.124900
-0.049170 -0.035479 0.133825
-0.043649 -0.030842 0.127807
-0.041861 -0.029563 0.129175
-0.040050 -0.028255 0.130485
-0.041317 -0.029836 0.139666
-0.039297 -0.028350 0.140966
-0.037256 -0.026836 0.142199
-0.035196 -0.025294 0.143366
-0.030706 -0.021322 0.136134
-0.026550 -0.017592 0.128662
-0.024796 -0.016245 0.129463
-0.023031 -0.014879 0.130205
-0.021257 -0.013495 0.130889
-0.019475 -0.012094 0.131513
-0.017687 -0.010676 0.132078
-0.015893 -0.009242 0.132583
-0.014094 -0.007794 0.133027
-0.013100 -0.007472 0.142302
-0.010491 -0.004858 0.133733
-0.008688 -0.003372 0.133995
-0.006886 -0.001876 0.134195
-0.004921 0.000712 0.116367
-0.003486 0.001922 0.116429
-0.002054 0.003138 0.116441
-0.000627 0.004359 0.116404
0.000158 0.005513 0.107340
0.001395 0.006588 0.107222
0.002624 0.007664 0.107060
0.003847 0.008742 0.106856
0.006402 0.010512 0.115481
0.004751 0.010054 0.097487
0.007459 0.011978 0.105986
0.006786 0.011898 0.096882
0.009814 0.014128 0.105196
0.010974 0.015198 0.104738
0.009763 0.014647 0.095705
0.010732 0.015557 0.095242
0.011688 0.016461 0.094744
0.015469 0.019434 0.102497
0.013560 0.018253 0.093645
0.017622 0.021512 0.101136
0.018672 0.022539 0.100397
0.023151 0.026222 0.107495
0.020716 0.024563 0.098805
0.025445 0.028514 0.105589
0.026558 0.029640 0.104574
0.027646 0.030753 0.103517
0.028709 0.031850 0.102419
0.029747 0.032932 0.101282
0.030759 0.033997 0.100106
0.031744 0.035044 0.098891
0.032701 0.036073 0.097640
0.033631 0.037084 0.096352
0.034532 0.038074 0.095028
0.035404 0.039044 0.093670
0.041343 0.044391 0.098251
0.042258 0.045434 0.096648
0.043138 0.046452 0.095009
0.049376 0.052183 0.098762
0.050276 0.053255 0.096866
0.045566 0.049342 0.089890
0.051957 0.055303 0.092967
0.052736 0.056279 0.090967
0.053473 0.057220 0.088935
0.054169 0.058128 0.086873
0.054823 0.059000 0.084781
0.061439 0.065348 0.086478
0.056003 0.060636 0.080517
0.056529 0.061398 0.078347
0.063176 0.067865 0.079319
0.063659 0.068620 0.076883
0.064094 0.069332 0.074424
0.064482 0.070001 0.071945
0.071137 0.076620 0.071715
0.071455 0.077253 0.068971
0.078086 0.083933 0.068020
0.078316 0.084511 0.065013
0.084888 0.091217 0.063338
0.097829 0.104161 0.062296
0.111442 0.117869 0.060405
0.124274 0.130926 0.057442
0.137013 0.143998 0.053530
0.136827 0.144411 0.048326
-0.745951 -1.188050 0.057707
-0.738251 -1.181281 0.094092
-0.734784 -1.181347 0.130527
-0.730803 -1.180603 0.166903
-0.721662 -1.171412 0.202170
-0.712083 -1.161439 0.236861
-0.683740 -1.120303 0.264989
-0.673487 -1.108918 0.297535
-0.590272 -0.975306 0.297977
-0.342107 -0.562776 0.209146
-0.245347 -0.402068 0.175445
-0.189765 -0.309702 0.155801
-0.157345 -0.255959 0.145246
-0.133626 -0.216603 0.137320
-0.119266 -0.193002 0.134040
-0.105196 -0.169650 0.129386
-0.091442 -0.146595 0.123373
-0.086024 -0.137943 0.123918
-0.076765 -0.122404 0.119827
-0.067317 -0.106351 0.114364
-0.058562 -0.091351 0.108492
-0.057483 -0.090005 0.111309
-0.056371 -0.088593 0.114080
-0.051688 -0.080651 0.111639
-0.050598 -0.079220 0.114122
-0.046112 -0.071491 0.111014
-0.045057 -0.070063 0.113217
-0.043979 -0.068582 0.115372
-0.042878 -0.067048 0.117478
-0.041755 -0.065464 0.119535
-0.040612 -0.063830 0.121540
-0.039448 -0.062148 0.123492
-0.038266 -0.060417 0.125390
-0.037067 -0.058640 0.127232
-0.038360 -0.061827 0.136061
-0.034617 -0.054951 0.130746
-0.033369 -0.053041 0.132414
-0.032107 -0.051090 0.134023
-0.028742 -0.044736 0.127981
-0.029546 -0.047067 0.137054
-0.026373 -0.040979 0.130644
-0.025175 -0.039050 0.131888
-0.022313 -0.033425 0.125020
-0.022755 -0.035098 0.134195
-0.021534 -0.033077 0.135256
-0.018988 -0.027917 0.127914
-0.017870 -0.026031 0.128765
-0.016749 -0.024122 0.129559
-0.015625 -0.022191 0.130294
-0.014500 -0.020240 0.130970
-0.012617 -0.016129 0.122878
-0.012248 -0.016283 0.132144
-0.010592 -0.012538 0.123827
-0.009164 -0.009185 0.115363
-0.008268 -0.007561 0.115663
-0.007375 -0.005927 0.115915
-0.006567 -0.005207 0.125071
-0.005540 -0.004064 0.134216
-0.004719 -0.000980 0.116377
-0.003843 0.000681 0.116433
-0.002973 0.002346 0.116439
-0.002109 0.004014 0.116396
-0.001829 0.005352 0.107328
-0.000404 0.007353 0.116162
-0.000351 0.008271 0.107037
0.000376 0.009729 0.106827
0.002092 0.012354 0.115442
0.002905 0.014014 0.115105
0.002507 0.014082 0.105942
0.001900 0.013729 0.096839
0.003881 0.016957 0.105141
0.006047 0.020588 0.113275
0.006802 0.022210 0.112698
0.005862 0.021208 0.103628
0.006500 0.022605 0.103042
0.008989 0.027002 0.110690
0.007738 0.025363 0.101751
0.010376 0.030126 0.109124
0.011047 0.031663 0.108274
0.011702 0.033182 0.107381
0.014628 0.038659 0.114187
0.012965 0.036162 0.105465
0.016012 0.041968 0.111937
0.016675 0.043585 0.110742
0.014732 0.040470 0.102279
0.015286 0.041859 0.101137
0.015822 0.043223 0.099956
0.019130 0.049780 0.105517
0.022544 0.056641 0.110726
0.023146 0.058245 0.109111
0.023723 0.059813 0.107451
0.024277 0.061343 0.105748
0.024806 0.062835 0.104002
0.025311 0.064286 0.102217
0.025790 0.065697 0.100391
0.026245 0.067066 0.098527
0.026674 0.068391 0.096626
0.030388 0.076370 0.099709
0.027457 0.070909 0.092719
0.031194 0.079042 0.095336
0.031554 0.080301 0.093097
0.035334 0.088676 0.095035
0.035665 0.089935 0.092521
0.032465 0.083761 0.086185
0.036235 0.092275 0.087396
0.036473 0.093354 0.084789
0.036681 0.094371 0.082154
0.040434 0.103052 0.082409
0.044181 0.111820 0.082192
0.044315 0.112786 0.079034
0.048020 0.121613 0.078091
0.055310 0.138476 0.078680
0.062973 0.156365 0.078525
0.070191 0.173461 0.077200
0.077350 0.190620 0.074924
0.084435 0.207807 0.071696
0.095031 0.233193 0.068363
0.109092 0.266820 0.064221
0.130533 0.317862 0.058986
0.154879 0.376236 0.050993
-0.321955 -1.938161 0.069425
-0.167041 -0.999253 0.083888
-0.166084 -1.007116 0.110972
-0.288731 -1.807312 0.211878
-0.128203 -0.790000 0.138875
-0.081705 -0.494980 0.117019
-0.067056 -0.404399 0.114755
-0.054306 -0.323980 0.109695
-0.045630 -0.269202 0.106159
-0.041085 -0.241700 0.106651
-0.036686 -0.214356 0.105731
-0.033613 -0.195743 0.106073
-0.031784 -0.185706 0.108361
-0.027775 -0.158940 0.103940
-0.024900 -0.139901 0.101111
-0.023314 -0.130234 0.101263
-0.021782 -0.120656 0.100942
-0.020308 -0.111183 0.100156
-0.019845 -0.109744 0.103094
-0.017540 -0.092625 0.097207
-0.017133 -0.091263 0.099654
-0.016722 -0.089836 0.102064
-0.016307 -0.088347 0.104434
-0.015889 -0.086795 0.106764
-0.015468 -0.085182 0.109050
-0.013627 -0.069436 0.100160
-0.013273 -0.067995 0.101990
-0.012918 -0.066506 0.103781
-0.013767 -0.078143 0.117738
-0.013339 -0.076243 0.119788
-0.012381 -0.068024 0.115346
-0.011989 -0.066185 0.117129
-0.011599 -0.064300 0.118863
-0.011210 -0.062368 0.120545
-0.010433 -0.054826 0.115114
-0.010083 -0.052992 0.116548
-0.009735 -0.051121 0.117932
-0.009390 -0.049213 0.119266
-0.009048 -0.047269 0.120549
-0.008709 -0.045292 0.121780
-0.008374 -0.043283 0.122957
-0.008042 -0.041243 0.124081
-0.007715 -0.039173 0.125150
-0.007393 -0.037075 0.126164
-0.007024 -0.031382 0.118860
-0.006764 -0.032800 0.128023
-0.006468 -0.027492 0.120431
-0.006156 -0.028430 0.129654
-0.005932 -0.023523 0.121793
-0.005772 -0.019046 0.113740
-0.005419 -0.019485 0.122944
-0.005327 -0.015432 0.114668
-0.005113 -0.013606 0.115059
-0.004697 -0.013322 0.124266
-0.004470 -0.011246 0.124597
-0.004507 -0.008074 0.115944
-0.004318 -0.006216 0.116140
-0.004135 -0.004352 0.116288
-0.003959 -0.002484 0.116387
-0.003789 -0.000614 0.116436
-0.003626 0.001258 0.116436
-0.003859 0.002808 0.107401
-0.003729 0.004443 0.107315
-0.003181 0.006867 0.116140
-0.003047 0.008730 0.115944
-0.002920 0.010589 0.115698
-0.002801 0.012440 0.115403
-0.002690 0.014284 0.115060
-0.003085 0.014164 0.105897
-0.002489 0.017943 0.114228
-0.002400 0.019756 0.113740
-0.002319 0.021555 0.113205
-0.002245 0.023341 0.112623
-0.002730 0.022025 0.103557
-0.002121 0.026864 0.111319
-0.002070 0.028599 0.110598
-0.002027 0.030315 0.109831
-0.001417 0.035964 0.117085
-0.000808 0.042012 0.124081
-0.000782 0.044079 0.122957
-0.000766 0.046116 0.121780
-0.001342 0.043344 0.112944
-0.001344 0.045119 0.111790
-0.000772 0.052034 0.117932
-0.000791 0.053937 0.116548
-0.000820 0.055804 0.115114
-0.000857 0.057633 0.113632
-0.000903 0.059422 0.112103
-0.000957 0.061171 0.110527
-0.001019 0.062878 0.108905
-0.001089 0.064542 0.107240
-0.001167 0.066162 0.105532
-0.000718 0.074488 0.109710
-0.000820 0.076170 0.107740
-0.001445 0.070746 0.100160
-0.001552 0.072178 0.098292
-0.001173 0.080898 0.101575
-0.001305 0.082364 0.099440
-0.000976 0.091374 0.102064
-0.001134 0.092850 0.099654
-0.001300 0.094263 0.097207
-0.001472 0.095610 0.094723
-0.001238 0.104955 0.096180
-0.001041 0.114438 0.097180
-0.000881 0.124041 0.097715
-0.000760 0.133746 0.097781
-0.000678 0.143534 0.097373
-0.000600 0.154335 0.096808
0.000027 0.181425 0.100744
0.000542 0.208813 0.103292
0.000387 0.219004 0.100018
0.000709 0.246712 0.100213
0.000915 0.274564 0.098991
0.001698 0.330093 0.101075
0.002835 0.411613 0.104002
0.003833 0.503393 0.103864
0.006437 0.702924 0.108791
0.015158 1.327977 0.130982
0.022648 2.054197 0.124359
0.026396 2.725527 0.079071
0.093068 -0.489070 0.052446
0.073848 -0.390645 0.061261
0.059905 -0.319600 0.066747
0.052855 -0.282744 0.071759
0.045854 -0.246877 0.074946
0.042461 -0.228501 0.078874
0.038987 -0.210121 0.081847
0.035439 -0.191771 0.083866
0.031824 -0.173489 0.084935
0.028149 -0.155311 0.085058
0.024210 -0.136335 0.083967
0.024285 -0.135221 0.087577
0.020486 -0.117427 0.085325
0.018584 -0.108081 0.085292
0.016662 -0.098831 0.084789
0.016649 -0.097726 0.087396
0.016617 -0.096556 0.089975
0.014649 -0.087490 0.088520
0.014587 -0.086299 0.090824
0.014508 -0.085050 0.093097
0.012516 -0.076257 0.090715
0.012413 -0.075020 0.092719
0.014169 -0.080963 0.099709
0.012160 -0.072395 0.096626
0.012010 -0.071009 0.098527
0.011845 -0.069577 0.100391
0.011663 -0.068098 0.102217
0.013255 -0.073085 0.109953
0.011251 -0.065006 0.105747
0.012767 -0.069586 0.113746
0.010776 -0.061742 0.109110
0.010514 -0.060049 0.110726
0.010237 -0.058316 0.112296
0.009944 -0.056545 0.113820
0.009635 -0.054737 0.115296
0.007738 -0.047759 0.109501
0.005894 -0.041125 0.103381
0.007112 -0.044352 0.111937
0.005314 -0.038046 0.105465
0.006432 -0.040831 0.114187
0.004686 -0.034872 0.107381
0.004354 -0.033251 0.108274
0.004011 -0.031609 0.109124
0.003657 -0.029948 0.109930
0.003291 -0.028268 0.110690
0.002914 -0.026571 0.111406
0.002526 -0.024858 0.112075
0.002127 -0.023130 0.112698
0.001719 -0.021389 0.113275
0.001300 -0.019635 0.113804
0.000871 -0.017870 0.114286
0.000432 -0.016095 0.114719
0.000779 -0.015886 0.123931
-0.000473 -0.012521 0.115442
-0.000939 -0.010724 0.115731
-0.001413 -0.008922 0.115971
-0.001896 -0.007116 0.116162
-0.002386 -0.005308 0.116303
-0.002884 -0.003499 0.116396
-0.003389 -0.001691 0.116439
-0.003901 0.000117 0.116433
-0.004420 0.001922 0.116377
-0.004944 0.003723 0.116273
-0.005583 0.004599 0.107166
-0.006010 0.007307 0.115915
-0.006551 0.009089 0.115663
-0.007097 0.010861 0.115363
-0.007646 0.012624 0.115013
-0.008199 0.014375 0.114615
-0.008756 0.016113 0.114170
-0.009315 0.017838 0.113676
-0.009878 0.019547 0.113135
-0.010442 0.021241 0.112547
-0.012182 0.029130 0.128765
-0.012891 0.031204 0.127914
-0.013601 0.033254 0.127006
-0.014312 0.035278 0.126041
-0.015022 0.037275 0.125020
-0.014788 0.035121 0.115999
-0.015426 0.036864 0.114982
-0.017147 0.043088 0.121629
-0.017850 0.044962 0.120392
-0.018551 0.046802 0.119102
-0.019248 0.048607 0.117762
-0.019941 0.050375 0.116372
-0.020628 0.052106 0.114932
-0.021310 0.053798 0.113444
-0.021986 0.055450 0.111908
-0.022656 0.057061 0.110326
-0.023318 0.058630 0.108700
-0.025744 0.066382 0.113282
-0.026454 0.068013 0.111397
-0.029056 0.076114 0.115372
-0.029809 0.077784 0.113217
-0.030550 0.079398 0.111014
-0.031278 0.080954 0.108767
-0.031992 0.082452 0.106475
-0.034897 0.091062 0.109110
-0.037902 0.099843 0.111309
-0.038684 0.101380 0.108492
-0.044193 0.117852 0.114364
-0.047469 0.127047 0.115206
-0.053580 0.144899 0.119969
-0.059596 0.162173 0.123373
-0.065777 0.179678 0.125865
-0.072112 0.197382 0.127435
-0.081262 0.223272 0.131154
-0.090631 0.249427 0.133487
-0.111532 0.309307 0.145256
-0.141026 0.393522 0.160717
-0.174367 0.487703 0.173985
-0.269034 0.757891 0.223321
-0.836495 2.381670 0.536784
-1.141541 3.234253 0.620649
-1.156291 3.253234 0.531966
-1.161309 3.244749 0.439409
-1.174477 3.259275 0.349886
-1.192963 3.288486 0.260795
-1.195395 3.273210 0.168543
-1.224692 3.331758 0.077909
0.094151 -0.154529 0.047980
0.089424 -0.146706 0.052305
0.084612 -0.138822 0.056155
0.094678 -0.153220 0.062162
0.084745 -0.137756 0.064644
0.074197 -0.121520 0.066029
0.069141 -0.113516 0.068169
0.064048 -0.105527 0.069829
0.058926 -0.097568 0.071011
0.053787 -0.089656 0.071715
0.053565 -0.088913 0.074440
0.053302 -0.088112 0.077145
0.048121 -0.080284 0.076883
0.052650 -0.086337 0.082485
0.047449 -0.078556 0.081732
0.047056 -0.077615 0.084119
0.041887 -0.069992 0.082662
0.046156 -0.075585 0.088809
0.045650 -0.074497 0.091110
0.049704 -0.079695 0.097822
0.039981 -0.065954 0.090967
0.039420 -0.064839 0.092967
0.043253 -0.069679 0.099977
0.042563 -0.068363 0.102103
0.041837 -0.067005 0.104189
0.045303 -0.071228 0.111846
0.040277 -0.064164 0.108236
0.035367 -0.057327 0.104223
0.038579 -0.061166 0.112109
0.037679 -0.059610 0.113976
0.032914 -0.053089 0.109315
0.032036 -0.051611 0.110925
0.031129 -0.050103 0.112489
0.023077 -0.039615 0.100106
0.022307 -0.038364 0.101282
0.021514 -0.037091 0.102419
0.020701 -0.035798 0.103516
0.019865 -0.034485 0.104573
0.019010 -0.033153 0.105589
0.018134 -0.031804 0.106563
0.017238 -0.030437 0.107495
0.016324 -0.029055 0.108383
0.015391 -0.027658 0.109227
0.014440 -0.026247 0.110027
0.011123 -0.022209 0.102497
0.010263 -0.020954 0.103118
0.009388 -0.019690 0.103699
0.010471 -0.020486 0.112773
0.007599 -0.017137 0.104738
0.008396 -0.017550 0.113867
0.005761 -0.014557 0.105612
0.006268 -0.014588 0.114770
0.003879 -0.011959 0.106319
0.004093 -0.011608 0.115481
0.002989 -0.010114 0.115764
0.001876 -0.008619 0.115997
0.000754 -0.007123 0.116182
-0.000376 -0.005629 0.116318
-0.001514 -0.004136 0.116404
-0.002658 -0.002646 0.116441
-0.003807 -0.001161 0.116429
-0.004962 0.000320 0.116367
-0.006121 0.001794 0.116256
-0.007283 0.003262 0.116096
-0.008447 0.004721 0.115887
-0.010167 0.007453 0.124520
-0.011481 0.009074 0.124174
-0.011948 0.009040 0.114966
-0.013114 0.010457 0.114562
-0.014278 0.011861 0.114111
-0.016726 0.015422 0.122250
-0.016599 0.014625 0.113064
-0.019330 0.018500 0.120966
-0.018902 0.017327 0.111830
-0.023775 0.024353 0.127804
-0.025198 0.025987 0.126888
-0.026611 0.027597 0.125916
-0.028013 0.029182 0.124888
-0.029404 0.030740 0.123805
-0.030782 0.032271 0.122668
-0.032147 0.033773 0.121477
-0.033497 0.035245 0.120233
-0.034831 0.036688 0.118938
-0.036148 0.038098 0.117591
-0.037448 0.039477 0.116194
-0.038729 0.040822 0.114748
-0.039991 0.042134 0.113254
-0.044851 0.048177 0.118434
-0.049934 0.054435 0.123251
-0.047509 0.050869 0.114892
-0.052780 0.057284 0.119280
-0.054160 0.058641 0.117218
-0.055509 0.059951 0.115105
-0.056827 0.061214 0.112944
-0.062539 0.067991 0.116256
-0.072958 0.080576 0.124478
-0.079115 0.087728 0.126747
-0.085425 0.094997 0.128573
-0.097243 0.108956 0.135222
-0.113775 0.128528 0.145006
-0.125772 0.142391 0.149161
-0.132945 0.150288 0.148285
-0.150565 0.170670 0.154766
-0.168576 0.191323 0.159900
-0.208883 0.238310 0.178029
-0.265737 0.304436 0.202443
-0.357306 0.410838 0.241031
-0.551190 0.636217 0.323646
-1.719243 1.996484 0.842229
-1.395276 1.610772 0.629328
-1.701293 1.957154 0.683689
-1.739826 1.992529 0.623530
-1.747859 1.992687 0.552424
-2.019345 2.293404 0.547541
-1.545983 1.745639 0.365952
-1.388261 1.559608 0.276847
-1.340948 1.499516 0.215199
-1.401196 1.560522 0.167293
-1.424212 1.579476 0.113242
-1.579464 1.745228 0.058954
0.131739 -0.095917 0.048167
0.123496 -0.090020 0.051943
0.115995 -0.084664 0.055266
0.100942 -0.074379 0.057205
0.100787 -0.073951 0.060481
0.093110 -0.068616 0.062371
0.085406 -0.063309 0.063783
0.085089 -0.062822 0.066557
0.084711 -0.062295 0.069315
0.076941 -0.057042 0.069760
0.076483 -0.056489 0.072256
0.075969 -0.055902 0.074733
0.068212 -0.050755 0.074217
0.067645 -0.050161 0.076429
0.067028 -0.049537 0.078620
0.066361 -0.048884 0.080787
0.065645 -0.048203 0.082929
0.064881 -0.047495 0.085044
0.070837 -0.050883 0.091395
0.063207 -0.045996 0.089191
0.062298 -0.045208 0.091219
0.061343 -0.044394 0.093215
0.053949 -0.039755 0.090110
0.059294 -0.042694 0.097105
0.058202 -0.041810 0.098997
0.057065 -0.040903 0.100851
0.055885 -0.039974 0.102667
0.048841 -0.035680 0.098448
0.047703 -0.034808 0.100010
0.046528 -0.033919 0.101533
0.039891 -0.029966 0.096515
0.033497 -0.026204 0.091136
0.037644 -0.028317 0.099045
0.036476 -0.027473 0.100255
0.035277 -0.026617 0.101426
0.034050 -0.025750 0.102558
0.032795 -0.024872 0.103651
0.031513 -0.023984 0.104703
0.021793 -0.018722 0.090410
0.020795 -0.018044 0.091136
0.023646 -0.019314 0.099719
0.018745 -0.016671 0.092493
0.024728 -0.019419 0.109330
0.019964 -0.016883 0.101921
0.018700 -0.016063 0.102577
0.020389 -0.016606 0.111577
0.016120 -0.014412 0.103768
0.014806 -0.013582 0.104303
0.011073 -0.011741 0.096184
0.009924 -0.011028 0.096572
0.010780 -0.011085 0.105661
0.009414 -0.010251 0.106030
0.008036 -0.009418 0.106357
0.008071 -0.008997 0.115519
0.006474 -0.008048 0.115796
0.003847 -0.006928 0.107083
0.003252 -0.006157 0.116202
0.001630 -0.005218 0.116331
0.000003 -0.004283 0.116411
-0.001629 -0.003353 0.116442
-0.003265 -0.002430 0.116424
-0.004903 -0.001513 0.116356
-0.006543 -0.000603 0.116239
-0.008183 0.000298 0.116072
-0.011475 0.002932 0.133696
-0.013523 0.004038 0.133366
-0.015566 0.005132 0.132975
-0.017605 0.006214 0.132523
-0.019636 0.007282 0.132011
-0.019809 0.006922 0.122744
-0.019568 0.006339 0.113545
-0.023420 0.008777 0.121554
-0.025209 0.009682 0.120879
-0.032287 0.014214 0.136964
-0.034443 0.015283 0.136011
-0.033538 0.014319 0.126770
-0.041934 0.019470 0.142049
-0.044221 0.020570 0.140807
-0.046482 0.021645 0.139499
-0.044913 0.020318 0.130324
-0.050923 0.023722 0.136689
-0.053098 0.024722 0.135189
-0.055242 0.025696 0.133627
-0.057353 0.026642 0.132003
-0.054729 0.024775 0.123168
-0.056597 0.025592 0.121571
-0.063471 0.029314 0.126777
-0.065433 0.030148 0.124920
-0.067355 0.030951 0.123009
-0.069235 0.031725 0.121043
-0.071071 0.032469 0.119025
-0.072863 0.033182 0.116956
-0.080580 0.037178 0.120699
-0.088534 0.041252 0.124032
-0.102963 0.048817 0.132442
-0.111485 0.053071 0.134738
-0.133953 0.064800 0.147393
-0.149749 0.072800 0.153306
-0.165939 0.080911 0.158355
-0.182494 0.089116 0.162524
-0.206375 0.101073 0.170113
-0.244971 0.120576 0.184590
-0.306849 0.151935 0.208998
-0.392032 0.194946 0.240896
-0.485630 0.241761 0.270968
-0.559456 0.277940 0.286287
-0.595813 0.294698 0.281966
-0.578947 0.284437 0.256077
-0.553532 0.270015 0.228807
-0.659363 0.321156 0.243219
-0.680207 0.329611 0.228209
-0.685035 0.330082 0.208367
-0.698219 0.334641 0.190261
-0.702155 0.334645 0.169950
-0.842079 0.400511 0.169949
-1.624921 0.775294 0.238888
-1.638722 0.777579 0.192441
-1.651441 0.779316 0.145423
-1.663056 0.780503 0.097865
-1.681688 0.784974 0.049824
0.130527 -0.034389 0.047978
0.121665 -0.032238 0.051041
0.112735 -0.030111 0.053629
0.103755 -0.028012 0.055741
0.103487 -0.027719 0.058548
0.094432 -0.025663 0.059941
0.085374 -0.023647 0.060859
0.084973 -0.023367 0.063169
0.084512 -0.023075 0.065466
0.083991 -0.022773 0.067748
0.091893 -0.024061 0.072567
0.082774 -0.022136 0.072264
0.082078 -0.021803 0.074495
0.089593 -0.022961 0.079925
0.088700 -0.022574 0.082331
0.087744 -0.022178 0.084711
0.086726 -0.021773 0.087064
0.077741 -0.020006 0.085307
0.061102 -0.016992 0.078813
0.067924 -0.017957 0.084951
0.059320 -0.016364 0.082076
0.065822 -0.017239 0.088566
0.064701 -0.016872 0.090328
0.070733 -0.017615 0.097344
0.069384 -0.017198 0.099231
0.067986 -0.016776 0.101080
0.066540 -0.016351 0.102891
0.065046 -0.015923 0.104662
0.057034 -0.014592 0.100202
0.055608 -0.014202 0.101720
0.047994 -0.012997 0.096677
0.046657 -0.012648 0.097956
0.051095 -0.013023 0.106036
0.049516 -0.012628 0.107391
0.042450 -0.011596 0.101570
0.040985 -0.011246 0.102697
0.039491 -0.010896 0.103785
0.037967 -0.010547 0.104831
0.031726 -0.009737 0.098170
0.025854 -0.009016 0.091225
0.028945 -0.009133 0.099818
0.023437 -0.008501 0.092574
0.022201 -0.008247 0.093199
0.024617 -0.008241 0.102005
0.023136 -0.007948 0.102656
0.021638 -0.007659 0.103267
0.020124 -0.007373 0.103837
0.015793 -0.007009 0.095815
0.014471 -0.006770 0.096234
0.017850 -0.006537 0.113990
0.013925 -0.006264 0.105710
0.012346 -0.005997 0.106073
0.009082 -0.005848 0.097553
0.010602 -0.005327 0.115556
0.008766 -0.005038 0.115827
0.005940 -0.004977 0.107105
0.005072 -0.004478 0.116221
0.003217 -0.004208 0.116344
0.001358 -0.003944 0.116418
-0.000503 -0.003687 0.116442
-0.002364 -0.003436 0.116418
-0.004226 -0.003193 0.116344
-0.006085 -0.002957 0.116221
-0.007942 -0.002728 0.116048
-0.009795 -0.002507 0.115827
-0.011641 -0.002294 0.115556
-0.015064 -0.001531 0.124079
-0.017127 -0.001308 0.123666
-0.021221 -0.000488 0.131942
-0.023488 -0.000261 0.131363
-0.025740 -0.000044 0.130723
-0.033418 0.001507 0.147130
-0.030194 0.000359 0.129268
-0.038722 0.001965 0.145243
-0.037953 0.001448 0.135888
-0.040324 0.001629 0.134865
-0.046482 0.002558 0.141897
-0.040959 0.001181 0.124623
-0.043036 0.001314 0.123526
-0.049525 0.002235 0.130163
-0.051746 0.002357 0.128838
-0.058776 0.003289 0.134997
-0.056084 0.002566 0.126016
-0.063429 0.003492 0.131796
-0.071114 0.004419 0.137238
-0.067911 0.003644 0.128355
-0.075874 0.004557 0.133385
-0.072210 0.003746 0.124684
-0.074287 0.003778 0.122766
-0.076313 0.003799 0.120794
-0.084765 0.004672 0.124959
-0.086847 0.004669 0.122710
-0.095664 0.005516 0.126247
-0.111670 0.007209 0.135028
-0.121105 0.008018 0.137542
-0.138786 0.009753 0.145490
-0.156141 0.011358 0.151998
-0.173929 0.012923 0.157656
-0.199748 0.015280 0.167144
-0.226175 0.017573 0.175343
-0.268901 0.021437 0.190806
-0.321447 0.026090 0.208634
-0.422713 0.035321 0.246571
-0.609832 0.052360 0.316636
-1.091580 0.096259 0.497706
-1.153461 0.099278 0.488201
-1.164867 0.097521 0.457758
-1.202005 0.097985 0.435668
-1.212021 0.096010 0.403979
-1.221202 0.093953 0.372043
-1.238267 0.092515 0.341978
-1.245813 0.090287 0.309384
-1.252501 0.087988 0.276609
-1.267191 0.086272 0.245078
-1.281084 0.084460 0.212944
-1.285227 0.081938 0.179290
-1.288484 0.079362 0.145543
-1.299822 0.077315 0.112195
-1.319270 0.075746 0.078561
-1.346820 0.074603 0.043957
0.133966 0.016905 0.044888
0.125015 0.015598 0.048159
0.124841 0.015840 0.051453
0.106933 0.012841 0.053279
0.106640 0.013023 0.056093
0.097505 0.011551 0.057698
0.097104 0.011694 0.060261
0.087949 0.010158 0.061148
0.087465 0.010266 0.063456
0.086921 0.010361 0.065752
0.094837 0.012140 0.070386
0.085656 0.010516 0.070297
0.084936 0.010574 0.072544
0.084158 0.010620 0.074772
0.083324 0.010652 0.076979
0.082433 0.010672 0.079164
0.081486 0.010678 0.081324
0.080485 0.010670 0.083460
0.079429 0.010648 0.085569
0.078319 0.010613 0.087650
0.077157 0.010563 0.089701
0.075943 0.010499 0.091721
0.067334 0.008731 0.088788
0.058940 0.006967 0.085430
0.064924 0.008552 0.092273
0.070585 0.010100 0.099464
0.069125 0.009963 0.101309
0.067619 0.009812 0.103114
0.066068 0.009646 0.104880
0.064474 0.009466 0.106604
0.062836 0.009270 0.108286
0.061157 0.009060 0.109924
0.053628 0.007305 0.104815
0.052046 0.007089 0.106208
0.044978 0.005380 0.100551
0.032979 0.002260 0.087410
0.026783 0.000667 0.080960
0.030725 0.001913 0.089063
0.034261 0.003088 0.097402
0.037383 0.004189 0.105959
0.031493 0.002621 0.099115
0.034170 0.003632 0.107833
0.032530 0.003337 0.108705
0.030870 0.003032 0.109532
0.025725 0.001571 0.102089
0.020989 0.000182 0.094415
0.019706 -0.000071 0.094935
0.018411 -0.000331 0.095419
0.017105 -0.000599 0.095869
0.018168 0.000050 0.104914
0.016620 -0.000281 0.105357
0.015063 -0.000620 0.105757
0.011791 -0.001745 0.097314
0.011926 -0.001321 0.106432
0.010347 -0.001684 0.106706
0.008763 -0.002053 0.106937
0.007974 -0.001862 0.116072
0.006155 -0.002302 0.116239
0.004334 -0.002748 0.116356
0.002512 -0.003202 0.116424
0.000691 -0.003664 0.116442
-0.001128 -0.004131 0.116411
-0.002944 -0.004606 0.116331
-0.004756 -0.005086 0.116202
-0.006562 -0.005572 0.116023
-0.008361 -0.006063 0.115796
-0.011632 -0.006582 0.124397
-0.015342 -0.007231 0.132867
-0.017558 -0.007863 0.132400
-0.017611 -0.008287 0.123136
-0.019576 -0.008864 0.122607
-0.024110 -0.009787 0.130639
-0.026258 -0.010435 0.129933
-0.028384 -0.011086 0.129169
-0.030489 -0.011740 0.128347
-0.036004 -0.012999 0.135764
-0.034624 -0.013052 0.126530
-0.036653 -0.013709 0.125537
-0.038654 -0.014367 0.124489
-0.040625 -0.015024 0.123385
-0.042566 -0.015680 0.122228
-0.044474 -0.016335 0.121017
-0.051169 -0.018054 0.127279
-0.053195 -0.018769 0.125832
-0.049994 -0.018286 0.117073
-0.062490 -0.021450 0.129889
-0.053491 -0.019569 0.114194
-0.060889 -0.021592 0.119500
-0.068578 -0.023736 0.124448
-0.070509 -0.024485 0.122522
-0.072388 -0.025226 0.120544
-0.074214 -0.025958 0.118513
-0.082482 -0.028380 0.122425
-0.084344 -0.029153 0.120117
-0.099701 -0.033548 0.129027
-0.108622 -0.036289 0.131695
-0.117729 -0.039128 0.133929
-0.142136 -0.046259 0.146418
-0.159107 -0.051444 0.152214
-0.176432 -0.056820 0.157144
-0.194081 -0.062379 0.161193
-0.227249 -0.072514 0.172870
-0.261068 -0.083014 0.182801
-0.343182 -0.107907 0.214439
-0.347062 -0.109992 0.204967
-0.350699 -0.112012 0.195384
-0.354090 -0.113967 0.185698
-0.357234 -0.115853 0.175914
-0.368320 -0.120188 0.168789
-0.379274 -0.124529 0.161131
-0.381772 -0.126274 0.150644
-0.535308 -0.175622 0.177536
-1.095976 -0.355043 0.284874
-1.109232 -0.361990 0.256253
-1.121789 -0.368756 0.227022
-1.116647 -0.369812 0.194918
-1.119200 -0.373345 0.164086
-1.120982 -0.376618 0.133170
-1.130523 -0.382461 0.102632
-1.147830 -0.390931 0.071785
0.152190 0.080119 0.045556
0.135509 0.070877 0.049443
0.119668 0.062033 0.052390
0.111573 0.057632 0.055153
0.103456 0.053175 0.057439
0.095335 0.048671 0.059248
0.094861 0.048663 0.062042
0.086733 0.044088 0.063131
0.086184 0.044012 0.065669
0.078094 0.039389 0.066038
0.077493 0.039258 0.068317
0.076840 0.039095 0.070579
0.076137 0.038900 0.072824
0.075385 0.038674 0.075049
0.074583 0.038415 0.077253
0.066691 0.033743 0.075941
0.072835 0.037804 0.081593
0.071891 0.037451 0.083725
0.070900 0.037066 0.085831
0.069863 0.036651 0.087908
0.068782 0.036203 0.089955
0.067657 0.035725 0.091971
0.066489 0.035216 0.093955
0.065279 0.034676 0.095904
0.064028 0.034106 0.097819
0.062737 0.033506 0.099697
0.061406 0.032876 0.101537
0.060038 0.032216 0.103337
0.058632 0.031527 0.105098
0.057190 0.030810 0.106817
0.050487 0.026494 0.102094
0.049128 0.025798 0.103563
0.042821 0.021667 0.098270
0.041563 0.021005 0.099503
0.044879 0.023562 0.107723
0.038974 0.019616 0.101855
0.037645 0.018891 0.102973
0.036295 0.018146 0.104050
0.034925 0.017381 0.105087
0.033534 0.016597 0.106082
0.032126 0.015794 0.107034
0.030700 0.014972 0.107944
0.026045 0.011672 0.100772
0.024770 0.010923 0.101491
0.023483 0.010160 0.102172
0.024842 0.011515 0.111143
0.023344 0.010610 0.111829
0.021835 0.009690 0.112470
0.018228 0.006971 0.104493
0.018789 0.007809 0.113611
0.017253 0.006848 0.114110
0.015711 0.005874 0.114562
0.014162 0.004889 0.114966
0.011491 0.002719 0.106469
0.011054 0.002885 0.115628
0.009495 0.001868 0.115887
0.007936 0.000842 0.116096
0.006376 -0.000193 0.116256
0.004817 -0.001235 0.116367
0.003260 -0.002284 0.116429
0.001706 -0.003340 0.116441
0.000156 -0.004401 0.116404
-0.000748 -0.005464 0.107340
-0.002926 -0.006538 0.116182
-0.004457 -0.007611 0.115997
-0.005979 -0.008687 0.115764
-0.008900 -0.010308 0.124354
-0.008994 -0.010844 0.115150
-0.012268 -0.012738 0.123554
-0.011963 -0.013002 0.114342
-0.013427 -0.014079 0.113867
-0.017213 -0.016375 0.121949
-0.021343 -0.018937 0.129841
-0.020423 -0.018785 0.120613
-0.024869 -0.021606 0.128240
-0.026598 -0.022932 0.127353
-0.028303 -0.024249 0.126409
-0.029982 -0.025558 0.125409
-0.031635 -0.026858 0.124354
-0.036974 -0.030428 0.131118
-0.038731 -0.031834 0.129837
-0.036423 -0.030690 0.120862
-0.037959 -0.031942 0.119592
-0.039463 -0.033180 0.118271
-0.045420 -0.037311 0.124139
-0.047002 -0.038639 0.122575
-0.053317 -0.043097 0.127909
-0.050050 -0.041236 0.119288
-0.061600 -0.049271 0.130852
-0.058111 -0.047247 0.122278
-0.059619 -0.048581 0.120293
-0.061080 -0.049890 0.118255
-0.068033 -0.054997 0.122140
-0.069513 -0.056356 0.119825
-0.070939 -0.057682 0.117458
-0.078181 -0.063110 0.120467
-0.079599 -0.064468 0.117812
-0.087028 -0.070115 0.120151
-0.100745 -0.080325 0.126894
-0.115446 -0.091350 0.133304
-0.129723 -0.102180 0.138307
-0.144233 -0.113286 0.142428
-0.165439 -0.129406 0.149679
-0.186963 -0.145918 0.155594
-0.208761 -0.162790 0.160154
-0.264984 -0.205440 0.180640
-0.327969 -0.253564 0.200307
-0.501981 -0.385609 0.263656
-0.828733 -0.634309 0.375479
-0.875964 -0.673207 0.363305
-0.887673 -0.685333 0.336556
-0.919706 -0.713096 0.315268
-0.930384 -0.724627 0.286532
-0.933457 -0.730332 0.255591
-0.942909 -0.740999 0.225850
-0.944701 -0.745735 0.194406
-0.952890 -0.755484 0.163738
-0.967489 -0.770323 0.133162
-0.967325 -0.773574 0.100769
-0.973545 -0.781884 0.068510
0.117615 0.149186 0.046289
0.117230 0.149342 0.051259
0.111484 0.142128 0.055670
0.110968 0.142078 0.060393
0.094117 0.119357 0.061918
0.088365 0.111905 0.064631
0.077468 0.097179 0.065373
0.071793 0.089666 0.066894
0.066156 0.082140 0.067938
0.065593 0.081755 0.070688
0.060016 0.074208 0.071010
0.064345 0.080807 0.076133
0.053937 0.066219 0.073103
0.053336 0.065702 0.075326
0.052702 0.065137 0.077527
0.052037 0.064523 0.079706
0.051341 0.063861 0.081861
0.050615 0.063151 0.083990
0.049859 0.062394 0.086092
0.049075 0.061590 0.088165
0.048262 0.060739 0.090209
0.051627 0.066210 0.096993
0.046555 0.058900 0.094200
0.045662 0.057913 0.096146
0.040808 0.050813 0.092700
0.039960 0.049846 0.094386
0.042833 0.054688 0.101764
0.041844 0.053528 0.103560
0.040832 0.052326 0.105315
0.032923 0.040113 0.094523
0.035414 0.044444 0.102280
0.034449 0.043255 0.103744
0.033466 0.042031 0.105167
0.032468 0.040774 0.106549
0.028565 0.034683 0.100845
0.027652 0.033508 0.101997
0.026727 0.032306 0.103110
0.025790 0.031076 0.104182
0.024843 0.029821 0.105213
0.023885 0.028540 0.106203
0.022918 0.027234 0.107150
0.021943 0.025905 0.108055
0.020960 0.024553 0.108916
0.019970 0.023179 0.109732
0.018973 0.021784 0.110504
0.017971 0.020370 0.111231
0.016965 0.018936 0.111912
0.017257 0.020121 0.121053
0.014940 0.016015 0.113135
0.013923 0.014530 0.113676
0.012904 0.013030 0.114170
0.011885 0.011516 0.114615
0.010865 0.009989 0.115013
0.009846 0.008450 0.115363
0.008827 0.006900 0.115663
0.007531 0.004230 0.106989
0.006797 0.003771 0.116119
0.005838 0.003624 0.134216
0.004780 0.000612 0.116377
0.003779 -0.000976 0.116433
0.002783 -0.002569 0.116439
0.002269 -0.004080 0.107409
0.001410 -0.005477 0.107328
0.000557 -0.006876 0.107204
-0.001133 -0.008962 0.115971
-0.002092 -0.010560 0.115731
-0.001957 -0.011066 0.106575
-0.003980 -0.013747 0.115105
-0.004908 -0.015335 0.114719
-0.005825 -0.016917 0.114286
-0.006729 -0.018492 0.113804
-0.007621 -0.020059 0.113275
-0.010271 -0.023896 0.121223
-0.013124 -0.028111 0.128969
-0.010216 -0.024701 0.111406
-0.011052 -0.026225 0.110690
-0.016262 -0.033832 0.126287
-0.012677 -0.029232 0.109124
-0.018256 -0.037557 0.124218
-0.019221 -0.039389 0.123101
-0.020164 -0.041199 0.121930
-0.021086 -0.042985 0.120706
-0.021984 -0.044747 0.119430
-0.022859 -0.046482 0.118102
-0.023710 -0.048190 0.116724
-0.024537 -0.049869 0.115296
-0.028446 -0.056345 0.120752
-0.029301 -0.058126 0.119076
-0.026865 -0.054724 0.110726
-0.034259 -0.066885 0.122033
-0.035097 -0.068709 0.120041
-0.035903 -0.070490 0.117997
-0.043751 -0.083730 0.127803
-0.041016 -0.079811 0.119532
-0.038123 -0.075562 0.111569
-0.038796 -0.077159 0.109333
-0.039435 -0.078706 0.107052
-0.043859 -0.086624 0.109747
-0.044476 -0.088191 0.107184
-0.048968 -0.096360 0.109201
-0.053506 -0.104695 0.110768
-0.062074 -0.120061 0.116092
-0.067161 -0.129564 0.116977
-0.075883 -0.145500 0.120712
-0.084672 -0.161723 0.123541
-0.093510 -0.178204 0.125451
-0.110668 -0.209606 0.132707
-0.119593 -0.226666 0.132306
-0.141525 -0.267212 0.139329
-0.171456 -0.322601 0.148649
-0.218771 -0.410073 0.163935
-0.312604 -0.583211 0.196187
-0.580838 -1.077604 0.291575
-0.645259 -1.201942 0.282863
-0.649577 -1.216278 0.248400
-0.675061 -1.270080 0.218867
-0.682668 -1.290941 0.182868
-0.681349 -1.295169 0.144606
-0.683772 -1.306448 0.106655
-0.685708 -1.316858 0.068190
