0.548408 1.839515 0.081414
0.546537 1.847752 0.132039
0.541735 1.846087 0.182431
0.536549 1.843153 0.232728
0.533435 1.847538 0.284008
0.522637 1.824914 0.331553
0.485028 1.706347 0.360438
0.492984 1.749844 0.417602
0.486264 1.740939 0.465043
0.417052 1.503036 0.450709
0.358240 1.299372 0.433444
0.310019 1.131557 0.416588
0.274199 1.007400 0.405945
0.245497 0.908021 0.397968
0.221749 0.825816 0.391620
0.198862 0.745392 0.381459
0.182678 0.689693 0.378632
0.168672 0.641549 0.376597
0.151406 0.579398 0.364179
0.142213 0.548672 0.366408
0.129374 0.502401 0.357378
0.120719 0.472498 0.356305
0.112302 0.442973 0.353828
0.104134 0.413877 0.349968
0.096227 0.385261 0.344751
0.090161 0.364033 0.343814
0.085617 0.349072 0.347086
0.075467 0.308624 0.326524
0.070057 0.288702 0.322448
0.068899 0.287986 0.336442
0.066308 0.280643 0.344089
0.061215 0.261211 0.338245
0.057512 0.248032 0.338365
0.052782 0.229411 0.331024
0.050403 0.222179 0.337084
0.045994 0.204288 0.328464
0.042760 0.192042 0.326468
0.039636 0.180029 0.324009
0.036624 0.168263 0.321099
0.033726 0.156759 0.317751
0.031662 0.149831 0.321851
0.029599 0.142795 0.325762
0.026872 0.131326 0.320489
0.024339 0.120624 0.315710
0.022412 0.113730 0.318835
0.020492 0.106752 0.321772
0.018214 0.096638 0.316062
0.016371 0.089723 0.318540
0.014539 0.082740 0.320830
0.012525 0.073291 0.314259
0.010777 0.066410 0.316109
0.009044 0.059477 0.317773
0.007328 0.052498 0.319250
0.005631 0.045478 0.320538
0.004032 0.037140 0.312729
0.002294 0.031333 0.322545
0.000844 0.023394 0.314303
-0.000717 0.016486 0.314813
-0.002254 0.009562 0.315138
-0.003768 0.002627 0.315277
-0.005256 -0.004315 0.315231
-0.006717 -0.011259 0.314999
-0.008150 -0.018200 0.314582
-0.009556 -0.025134 0.313979
-0.011509 -0.033075 0.322115
-0.012899 -0.040208 0.321111
-0.014257 -0.047318 0.319917
-0.014873 -0.052694 0.309727
-0.016872 -0.061450 0.316965
-0.018129 -0.068461 0.315208
-0.019350 -0.075430 0.313265
-0.020534 -0.082352 0.311138
-0.021682 -0.089221 0.308828
-0.023734 -0.099080 0.314753
-0.025817 -0.109311 0.320327
-0.026918 -0.116425 0.317296
-0.027978 -0.123462 0.314077
-0.027924 -0.126517 0.302635
-0.031072 -0.141401 0.315019
-0.033288 -0.153181 0.319825
-0.034234 -0.160293 0.315630
-0.036316 -0.172015 0.318823
-0.038401 -0.184018 0.321574
-0.039254 -0.191181 0.316561
-0.041309 -0.203511 0.318531
-0.042084 -0.210599 0.313004
-0.044098 -0.223209 0.314169
-0.047404 -0.241869 0.321566
-0.049399 -0.255056 0.321586
-0.051369 -0.268415 0.321093
-0.053310 -0.281929 0.320079
-0.057948 -0.308605 0.330657
-0.059843 -0.322688 0.328227
-0.061694 -0.336863 0.325247
-0.064894 -0.358080 0.327229
-0.068214 -0.380427 0.328867
-0.071336 -0.402303 0.328937
-0.074408 -0.424449 0.328040
-0.076010 -0.439315 0.321415
-0.081794 -0.477045 0.327836
-0.086095 -0.507659 0.328096
-0.090318 -0.538619 0.326925
-0.096027 -0.578732 0.328664
-0.102887 -0.626488 0.331762
-0.109624 -0.674806 0.332519
-0.114818 -0.715332 0.327633
-0.124219 -0.782047 0.330302
-0.134657 -0.856885 0.332143
-0.146396 -0.941804 0.333108
-0.160450 -1.043548 0.334268
-0.178399 -1.172853 0.336933
-0.201307 -1.337759 0.340643
-0.200734 -1.354152 0.306837
-0.221336 -1.511179 0.295939
-0.221503 -1.535297 0.258346
-0.217571 -1.531944 0.216687
-0.214803 -1.536352 0.176138
-0.213154 -1.548596 0.136025
-0.212717 -1.569703 0.095701
-0.209480 -1.570946 0.054232
-0.334878 3.560251 0.124969
-0.341296 3.547262 0.218076
-0.307879 3.136945 0.280836
-0.189025 1.909702 0.239007
-0.197252 1.947959 0.294863
-0.167483 1.628829 0.297591
-0.146199 1.400252 0.299998
-0.130879 1.234210 0.303461
-0.117907 1.095238 0.304600
-0.108441 0.991781 0.307820
-0.100744 0.907130 0.311126
-0.093657 0.830640 0.312624
-0.087460 0.764144 0.313603
-0.080923 0.697310 0.310931
-0.076408 0.648651 0.312149
-0.071736 0.600457 0.311004
-0.066798 0.551923 0.307095
-0.064004 0.520864 0.309389
-0.062198 0.497947 0.314504
-0.058128 0.459671 0.309665
-0.055060 0.429642 0.307683
-0.054109 0.415039 0.314055
-0.051999 0.393053 0.314779
-0.049706 0.370534 0.313955
-0.047481 0.349135 0.312745
-0.045207 0.328073 0.310602
-0.041796 0.300603 0.301726
-0.038356 0.273849 0.291597
-0.038150 0.267250 0.298747
-0.037897 0.260468 0.305724
-0.037597 0.253510 0.312521
-0.036186 0.240422 0.312472
-0.034747 0.227522 0.311923
-0.033283 0.214826 0.310884
-0.031796 0.202351 0.309365
-0.030291 0.190113 0.307375
-0.028770 0.178128 0.304928
-0.027128 0.165874 0.301198
-0.026560 0.159099 0.305507
-0.024999 0.147782 0.301864
-0.024369 0.141004 0.305697
-0.023701 0.134132 0.309351
-0.022102 0.123358 0.304719
-0.021378 0.116525 0.307907
-0.019773 0.106232 0.302619
-0.019000 0.099467 0.305356
-0.018192 0.092638 0.307915
-0.017350 0.085747 0.310293
-0.016472 0.078802 0.312489
-0.015561 0.071805 0.314501
-0.013936 0.062713 0.307590
-0.012989 0.055857 0.309178
-0.012010 0.048967 0.310584
-0.011582 0.043408 0.320685
-0.009960 0.035100 0.312849
-0.008890 0.028133 0.313705
-0.007791 0.021151 0.314377
-0.006664 0.014158 0.314864
-0.005907 0.007361 0.324155
-0.004326 0.000160 0.315282
-0.003118 -0.006836 0.315212
-0.002162 -0.014320 0.323939
-0.000626 -0.020797 0.314516
0.000656 -0.027753 0.313891
0.001960 -0.034685 0.313080
0.003179 -0.043009 0.320972
0.004570 -0.050109 0.319755
0.005981 -0.057170 0.318349
0.007411 -0.064187 0.316755
0.008936 -0.073482 0.323669
0.010324 -0.078071 0.313009
0.011976 -0.087698 0.319421
0.013519 -0.094711 0.317013
0.015344 -0.104859 0.322825
0.016962 -0.111942 0.319959
0.018957 -0.122574 0.325131
0.021108 -0.133965 0.330823
0.022861 -0.141224 0.327179
0.025137 -0.152631 0.331257
0.027520 -0.164332 0.334915
0.029392 -0.171665 0.330457
0.031934 -0.183717 0.333361
0.034578 -0.196021 0.335812
0.038090 -0.213782 0.345089
0.040983 -0.226729 0.346457
0.043105 -0.234294 0.340326
0.047058 -0.253208 0.347705
0.050234 -0.266708 0.347566
0.054517 -0.286452 0.353446
0.058984 -0.306655 0.358469
0.061399 -0.314448 0.350192
0.067291 -0.341734 0.359819
0.072373 -0.363716 0.362972
0.076230 -0.378433 0.358841
0.084079 -0.414185 0.370619
0.088204 -0.429325 0.364758
0.096588 -0.466239 0.373646
0.103849 -0.496450 0.375837
0.112989 -0.535398 0.381866
0.122268 -0.574086 0.385514
0.134991 -0.628746 0.395929
0.144915 -0.668558 0.395410
0.161931 -0.741359 0.408992
0.177629 -0.806267 0.414789
0.195722 -0.880896 0.421176
0.219477 -0.979978 0.433163
0.247772 -1.097587 0.446443
0.282443 -1.241395 0.462046
0.323753 -1.411747 0.477893
0.379848 -1.643710 0.501554
0.462858 -1.988265 0.540609
0.574113 -2.447720 0.586229
0.578624 -2.442164 0.516930
0.590807 -2.469358 0.453963
0.610987 -2.529678 0.394584
0.757860 -3.114349 0.390556
0.627647 -2.550039 0.258689
0.601869 -2.421381 0.182393
0.801918 -3.205698 0.140487
0.822192 -3.257708 0.054139
-0.998580 1.857809 0.098867
-0.837293 1.552045 0.136182
-0.713348 1.317576 0.161776
-0.623422 1.147300 0.181166
-0.554431 1.016584 0.196426
-0.506571 0.925191 0.211078
-0.458852 0.834947 0.220628
-0.423343 0.767341 0.230356
-0.392423 0.708527 0.238549
-0.356590 0.641633 0.240820
-0.334015 0.598641 0.247204
-0.311355 0.555922 0.251191
-0.297137 0.528255 0.258795
-0.273929 0.485353 0.258121
-0.259620 0.458137 0.262314
-0.245286 0.431141 0.265053
-0.230953 0.404411 0.266349
-0.220744 0.384895 0.270298
-0.210516 0.365529 0.273253
-0.199841 0.345605 0.274723
-0.193605 0.333222 0.280394
-0.183388 0.314397 0.280605
-0.177097 0.302176 0.284956
-0.166952 0.283800 0.283470
-0.156893 0.265752 0.281058
-0.150644 0.254000 0.283394
-0.129827 0.219156 0.261844
-0.127424 0.213862 0.268435
-0.124917 0.208431 0.274873
-0.125747 0.208227 0.287510
-0.119597 0.197170 0.287269
-0.116785 0.191348 0.293220
-0.110663 0.180513 0.292163
-0.104606 0.169887 0.290630
-0.098284 0.158976 0.287839
-0.092394 0.148827 0.285371
-0.089471 0.143149 0.289872
-0.086468 0.137382 0.294205
-0.080698 0.127661 0.290699
-0.077636 0.121910 0.294566
-0.074503 0.116086 0.298261
-0.068903 0.106868 0.293770
-0.065733 0.101096 0.297011
-0.062499 0.095266 0.300078
-0.059204 0.089382 0.302971
-0.055848 0.083448 0.305686
-0.050569 0.075089 0.299745
-0.047212 0.069261 0.302025
-0.043803 0.063397 0.304128
-0.040345 0.057501 0.306053
-0.036840 0.051578 0.307798
-0.033290 0.045631 0.309364
-0.029697 0.039665 0.310747
-0.025013 0.032681 0.303066
-0.022394 0.027691 0.312966
-0.018689 0.021692 0.313799
-0.014951 0.015691 0.314448
-0.011183 0.009691 0.314912
-0.007388 0.003697 0.315190
-0.003567 -0.002286 0.315283
0.000275 -0.008256 0.315190
0.004091 -0.014798 0.323892
0.008099 -0.020924 0.323413
0.012121 -0.027022 0.322743
0.016155 -0.033088 0.321882
0.020199 -0.039119 0.320830
0.024248 -0.045110 0.319589
0.029032 -0.052814 0.326956
0.033215 -0.058902 0.325287
0.037395 -0.064937 0.323425
0.041569 -0.070913 0.321373
0.046988 -0.079334 0.327682
0.052654 -0.088054 0.333653
0.058730 -0.097381 0.340200
0.064890 -0.106686 0.345434
0.069515 -0.113034 0.342067
0.076008 -0.122686 0.346611
0.080701 -0.129016 0.342734
0.087505 -0.138977 0.346555
0.094520 -0.149160 0.349944
0.101737 -0.159553 0.352888
0.109151 -0.170141 0.355374
0.119389 -0.185285 0.364802
0.127290 -0.196375 0.366201
0.135361 -0.207616 0.367103
0.143594 -0.218993 0.367497
0.158188 -0.240414 0.381048
0.163725 -0.247194 0.373405
0.175825 -0.264255 0.378580
0.192083 -0.287608 0.389942
0.204964 -0.305446 0.393154
0.221796 -0.329167 0.401459
0.235369 -0.347636 0.402631
0.249206 -0.366315 0.402841
0.271184 -0.397083 0.413020
0.298263 -0.435156 0.427322
0.321524 -0.467124 0.433756
0.349545 -0.505803 0.443267
0.383028 -0.552118 0.455749
0.421233 -0.604859 0.469489
0.460336 -0.658363 0.480083
0.514457 -0.733060 0.500175
0.574450 -0.815448 0.519582
0.644621 -0.911581 0.540844
0.740653 -1.043596 0.573750
0.858592 -1.205347 0.611651
1.022493 -1.430312 0.666053
1.245328 -1.735762 0.737374
0.935626 -1.294821 0.516812
1.027361 -1.415927 0.512307
0.903490 -1.237832 0.411630
0.900711 -1.228092 0.367464
1.045005 -1.419890 0.370398
1.195421 -1.618277 0.362211
0.995861 -1.340029 0.263542
1.007194 -1.349188 0.220716
1.033954 -1.379033 0.179407
1.022551 -1.357556 0.132856
1.037299 -1.371140 0.088815
1.117009 -1.470801 0.043757
-1.139946 0.387052 0.051895
-1.019689 0.344532 0.079294
-0.908249 0.305469 0.100609
-0.838046 0.280381 0.119494
-0.768420 0.255805 0.134632
-0.714597 0.236634 0.148284
-0.661521 0.217951 0.159176
-0.625206 0.204823 0.170588
-0.579429 0.188891 0.177926
-0.551292 0.178670 0.187367
-0.523060 0.168550 0.195339
-0.478314 0.153500 0.196629
-0.458350 0.146197 0.204057
-0.446431 0.141411 0.213538
-0.426310 0.134223 0.219184
-0.397360 0.124516 0.219951
-0.377383 0.117582 0.223370
-0.365270 0.113028 0.229730
-0.353086 0.108507 0.235539
-0.340850 0.104024 0.240799
-0.328582 0.099586 0.245512
-0.308936 0.093141 0.244934
-0.296775 0.088865 0.248363
-0.277518 0.082703 0.246119
-0.272559 0.080507 0.253628
-0.260539 0.076437 0.255474
-0.248603 0.072445 0.256803
-0.222855 0.064911 0.245201
-0.211445 0.061218 0.245147
-0.212770 0.060816 0.257070
-0.201358 0.057194 0.256388
-0.202077 0.056622 0.268356
-0.190695 0.053081 0.267049
-0.185155 0.050996 0.272152
-0.168529 0.046324 0.263050
-0.168380 0.045557 0.274718
-0.157509 0.042336 0.271894
-0.156766 0.041418 0.283527
-0.141281 0.037280 0.272541
-0.140134 0.036282 0.283984
-0.134132 0.034252 0.287689
-0.123859 0.031386 0.283297
-0.117864 0.029416 0.286558
-0.111782 0.027447 0.289652
-0.102051 0.024843 0.284340
-0.096016 0.022944 0.287006
-0.089908 0.021049 0.289504
-0.083733 0.019160 0.291835
-0.077494 0.017279 0.293997
-0.071197 0.015407 0.295987
-0.064844 0.013546 0.297805
-0.058441 0.011696 0.299449
-0.051992 0.009861 0.300918
-0.047122 0.008097 0.311064
-0.040369 0.006230 0.312220
-0.033583 0.004382 0.313191
-0.026768 0.002553 0.313979
-0.019929 0.000745 0.314581
-0.013558 -0.001288 0.323982
-0.006196 -0.002804 0.315231
0.000688 -0.004541 0.315277
0.007776 -0.006673 0.324126
0.014895 -0.008414 0.323791
0.022009 -0.010125 0.323264
0.029999 -0.012392 0.331483
0.037318 -0.014095 0.330545
0.045958 -0.016454 0.338283
0.053458 -0.018140 0.336912
0.059134 -0.018997 0.326557
0.068361 -0.021400 0.333570
0.077995 -0.023860 0.340272
0.088300 -0.026476 0.347602
0.098744 -0.029043 0.353624
0.103757 -0.029607 0.342373
0.114511 -0.032170 0.347824
0.125623 -0.034771 0.352897
0.140630 -0.038551 0.365765
0.148875 -0.040065 0.361843
0.160990 -0.042748 0.365689
0.173412 -0.045448 0.369098
0.190504 -0.049456 0.379814
0.208275 -0.053538 0.389825
0.217158 -0.054968 0.384082
0.230862 -0.057723 0.385484
0.249952 -0.061887 0.393623
0.269628 -0.066094 0.400964
0.284339 -0.068863 0.400531
0.316969 -0.076259 0.420708
0.338432 -0.080564 0.425336
0.366413 -0.086414 0.435550
0.388946 -0.090739 0.438200
0.431025 -0.099784 0.458349
0.468609 -0.107490 0.471186
0.506422 -0.115047 0.481640
0.551954 -0.124237 0.495965
0.605580 -0.135081 0.513568
0.654171 -0.144477 0.523940
0.724723 -0.158640 0.546597
0.797735 -0.172990 0.566328
0.894018 -0.192146 0.595908
1.008539 -0.214816 0.630056
1.156502 -0.244162 0.675382
1.354748 -0.283534 0.737338
1.613733 -0.334764 0.816224
2.007845 -0.412947 0.939720
2.622764 -0.534762 1.130987
3.564572 -0.720207 1.410887
5.798416 -1.161321 2.091480
5.911521 -1.169568 1.955410
6.037641 -1.179999 1.819550
6.126629 -1.182783 1.669327
6.212979 -1.184799 1.515937
7.881775 -1.486326 1.690478
11.563612 -2.130262 1.822414
11.636451 -2.117175 1.517487
11.728875 -2.107522 1.212876
11.242979 -1.994727 0.863054
9.999229 -1.751080 0.505636
9.039145 -1.562357 0.220877
-1.130605 -0.052783 0.055156
-1.012071 -0.048724 0.080573
-0.919991 -0.045673 0.101461
-0.846486 -0.043335 0.119224
-0.781671 -0.041222 0.134207
-0.715720 -0.038766 0.145713
-0.668458 -0.037258 0.156981
-0.629950 -0.036145 0.167572
-0.590405 -0.034800 0.176013
-0.560560 -0.033990 0.184898
-0.522032 -0.032407 0.189906
-0.492240 -0.031331 0.195635
-0.471037 -0.030811 0.202770
-0.449814 -0.030202 0.208904
-0.445295 -0.030912 0.220645
-0.414797 -0.029361 0.221313
-0.401813 -0.029237 0.228398
-0.380698 -0.028316 0.230980
-0.367685 -0.028067 0.236746
-0.354641 -0.027764 0.241964
-0.333870 -0.026638 0.242063
-0.313353 -0.025444 0.241216
-0.308051 -0.025753 0.249376
-0.287881 -0.024446 0.247065
-0.275249 -0.023877 0.249201
-0.262712 -0.023264 0.250818
-0.250287 -0.022609 0.251922
-0.237993 -0.021914 0.252521
-0.232433 -0.021992 0.258704
-0.213157 -0.020322 0.251540
-0.207636 -0.020332 0.257072
-0.201973 -0.020310 0.262459
-0.196172 -0.020256 0.267695
-0.190238 -0.020168 0.272779
-0.178629 -0.019244 0.270664
-0.167269 -0.018294 0.268100
-0.161341 -0.018117 0.272426
-0.155303 -0.017908 0.276596
-0.149160 -0.017666 0.280607
-0.142916 -0.017392 0.284456
-0.132206 -0.016324 0.280309
-0.125980 -0.015995 0.283713
-0.119670 -0.015635 0.286953
-0.109539 -0.014518 0.281873
-0.106812 -0.014818 0.292933
-0.096967 -0.013667 0.287327
-0.090581 -0.013196 0.289805
-0.084136 -0.012694 0.292115
-0.077634 -0.012162 0.294255
-0.071082 -0.011599 0.296224
-0.064483 -0.011007 0.298020
-0.057842 -0.010385 0.299642
-0.051163 -0.009734 0.301090
-0.044452 -0.009054 0.302361
-0.037713 -0.008345 0.303456
-0.031987 -0.008095 0.313300
-0.024972 -0.007303 0.314064
-0.017944 -0.006484 0.314644
-0.010905 -0.005637 0.315038
-0.003963 -0.005138 0.324239
0.003180 -0.003862 0.315270
0.010217 -0.002935 0.315108
0.017846 -0.002266 0.323735
0.025091 -0.001257 0.323184
0.032316 -0.000223 0.322442
0.039516 0.000835 0.321510
0.049744 0.001619 0.338123
0.057337 0.002794 0.336727
0.064887 0.003991 0.335130
0.072388 0.005209 0.333335
0.082276 0.006447 0.340004
0.092848 0.007784 0.347299
0.100642 0.009143 0.344762
0.111467 0.010635 0.350465
0.119326 0.012071 0.347434
0.134172 0.013910 0.360743
0.146027 0.015693 0.365287
0.154242 0.017298 0.361338
0.170676 0.019550 0.373114
0.183441 0.021623 0.376370
0.196480 0.023791 0.379169
0.209777 0.026054 0.381499
0.223317 0.028410 0.383348
0.242236 0.031385 0.392065
0.261739 0.034537 0.400002
0.281798 0.037864 0.407134
0.303017 0.041436 0.414207
0.318240 0.044414 0.412860
0.339634 0.048215 0.417574
0.373899 0.053748 0.434317
0.402840 0.058789 0.443187
0.432461 0.064074 0.450775
0.470148 0.070609 0.463662
0.507990 0.077365 0.474168
0.553632 0.085426 0.488524
0.600303 0.093874 0.500730
0.663244 0.104970 0.521746
0.734162 0.117597 0.544168
0.807429 0.130946 0.563656
0.904145 0.148337 0.592915
1.011391 0.167892 0.622262
1.152025 0.193392 0.663091
1.350933 0.229187 0.724803
1.618829 0.277511 0.807040
1.981067 0.343181 0.914740
2.573437 0.450293 1.094994
3.519011 0.622061 1.373883
5.541222 0.989334 1.972334
5.919559 1.085121 1.759678
6.071537 1.127303 1.630994
5.872930 1.104536 1.414147
11.661262 2.213878 2.439879
11.749585 2.284995 1.814368
11.785945 2.319016 1.500571
11.779032 2.344423 1.182377
11.533021 2.321626 0.849172
10.152331 2.067261 0.481185
9.171244 1.888580 0.193900
-0.238029 -0.109310 0.047823
-0.237633 -0.109739 0.054677
-0.237074 -0.110091 0.061524
-0.236352 -0.110365 0.068359
-0.243461 -0.114562 0.076232
-0.242381 -0.114682 0.083263
-0.233221 -0.110711 0.088747
-0.231858 -0.110666 0.095488
-0.230338 -0.110540 0.102195
-0.236417 -0.114327 0.111072
-0.226829 -0.110043 0.115484
-0.224844 -0.109672 0.122058
-0.222707 -0.109218 0.128579
-0.212948 -0.104745 0.131931
-0.210597 -0.104148 0.138112
-0.208104 -0.103471 0.144229
-0.205472 -0.102714 0.150277
-0.209809 -0.105711 0.160229
-0.277603 -0.143199 0.208655
-0.300937 -0.156871 0.234342
-0.296062 -0.155216 0.243158
-0.290989 -0.153440 0.251837
-0.272640 -0.144259 0.250386
-0.267438 -0.142335 0.258387
-0.255775 -0.136753 0.260862
-0.244210 -0.131162 0.262812
-0.226748 -0.122133 0.258492
-0.215569 -0.116610 0.259230
-0.204539 -0.111109 0.259467
-0.176345 -0.095503 0.239691
-0.166140 -0.090276 0.238432
-0.161398 -0.088229 0.243313
-0.161650 -0.089159 0.254819
-0.161473 -0.089868 0.266491
-0.151332 -0.084540 0.264189
-0.155216 -0.087770 0.283059
-0.140633 -0.079620 0.272956
-0.135151 -0.077051 0.277106
-0.129584 -0.074411 0.281097
-0.123938 -0.071701 0.284925
-0.118217 -0.068924 0.288589
-0.108912 -0.063771 0.284127
-0.106564 -0.063173 0.295412
-0.097508 -0.058082 0.290400
-0.091719 -0.055148 0.293284
-0.085877 -0.052158 0.295998
-0.079986 -0.049112 0.298540
-0.074051 -0.046014 0.300907
-0.065922 -0.041249 0.294510
-0.062064 -0.039665 0.305113
-0.054269 -0.035018 0.298232
-0.048401 -0.031837 0.299833
-0.042510 -0.028614 0.301258
-0.036601 -0.025351 0.302508
-0.030678 -0.022052 0.303580
-0.025482 -0.019557 0.313406
-0.019340 -0.016075 0.314147
-0.013523 -0.013167 0.323677
-0.007054 -0.009018 0.315074
-0.000919 -0.005448 0.315260
0.005204 -0.001855 0.315260
0.011799 0.001630 0.324060
0.018090 0.005385 0.323677
0.024356 0.009156 0.323102
0.030593 0.012943 0.322336
0.038088 0.017097 0.330279
0.044452 0.021026 0.329096
0.052460 0.025563 0.336538
0.058930 0.029625 0.334917
0.065345 0.033688 0.333096
0.073972 0.038719 0.339733
0.083191 0.044111 0.346994
0.092466 0.049632 0.352946
0.096370 0.052712 0.341661
0.108879 0.059908 0.355393
0.118830 0.065991 0.360300
0.125667 0.070593 0.356639
0.135960 0.076987 0.360829
0.139036 0.079712 0.348677
0.157259 0.090395 0.367918
0.168240 0.097395 0.370792
0.179423 0.104584 0.373201
0.186400 0.109549 0.367657
0.206894 0.122019 0.383921
0.218753 0.129843 0.384727
0.230754 0.137823 0.385018
0.247887 0.148804 0.391697
0.271142 0.163430 0.405047
0.289200 0.175226 0.409847
0.302169 0.184175 0.407317
0.326304 0.199776 0.416758
0.345292 0.212499 0.418828
0.376157 0.232444 0.431805
0.401792 0.249465 0.437352
0.440611 0.274649 0.453293
0.473427 0.296448 0.461087
0.513040 0.322643 0.472274
0.560407 0.353900 0.486793
0.620813 0.393586 0.507678
0.682303 0.434369 0.525058
0.745499 0.476642 0.539358
0.836498 0.536926 0.566726
0.941744 0.606891 0.596197
1.084437 0.701519 0.639026
1.270094 0.824742 0.694117
1.536234 1.001256 0.774897
1.905710 1.246729 0.883217
2.465921 1.619305 1.044134
3.560899 2.346861 1.366237
4.121288 2.728739 1.435729
4.100289 2.728489 1.292665
4.082487 2.730135 1.153246
3.494383 2.349431 0.879964
3.528125 2.383524 0.774062
3.566939 2.421202 0.667554
3.135274 2.139250 0.492012
3.876020 2.655202 0.474136
3.855982 2.653810 0.349297
3.877723 2.681037 0.227756
3.919813 2.722444 0.105032
-0.810801 -0.865197 0.063423
-0.992628 -1.065986 0.105900
-0.872803 -0.940207 0.132258
-0.777525 -0.840179 0.152970
-0.706662 -0.766092 0.170855
-0.642703 -0.698976 0.184921
-0.590279 -0.644053 0.197157
-0.544683 -0.596246 0.207503
-0.498709 -0.547596 0.214283
-0.465346 -0.512674 0.222409
-0.432207 -0.477696 0.228133
-0.410720 -0.455612 0.236851
-0.377469 -0.419935 0.237932
-0.350803 -0.391467 0.240090
-0.335418 -0.375711 0.247064
-0.314699 -0.353651 0.249450
-0.304885 -0.344056 0.257978
-0.284545 -0.322091 0.257929
-0.274267 -0.311726 0.264423
-0.259498 -0.295975 0.266377
-0.244925 -0.280308 0.267358
-0.235453 -0.270575 0.272200
-0.221241 -0.255073 0.271470
-0.211973 -0.245381 0.275015
-0.202778 -0.235692 0.278018
-0.189200 -0.220561 0.274895
-0.184660 -0.216375 0.282420
-0.171514 -0.201528 0.277882
-0.166984 -0.197240 0.284726
-0.154327 -0.182750 0.278816
-0.145949 -0.173490 0.278533
-0.137729 -0.164336 0.277763
-0.133321 -0.159966 0.283293
-0.121413 -0.145894 0.274026
-0.117128 -0.141556 0.278914
-0.116034 -0.141378 0.290863
-0.108366 -0.132551 0.288204
-0.100909 -0.123897 0.285107
-0.096519 -0.119278 0.289205
-0.092079 -0.114562 0.293135
-0.085020 -0.106203 0.289035
-0.080630 -0.101458 0.292511
-0.076201 -0.096629 0.295816
-0.071736 -0.091719 0.298948
-0.067238 -0.086732 0.301907
-0.062711 -0.081671 0.304689
-0.056452 -0.073943 0.298845
-0.052024 -0.068911 0.301191
-0.047577 -0.063817 0.303360
-0.043114 -0.058665 0.305352
-0.038640 -0.053458 0.307165
-0.033191 -0.046460 0.300020
-0.029667 -0.042894 0.310250
-0.025174 -0.037544 0.311519
-0.020683 -0.032153 0.312606
-0.016195 -0.026725 0.313508
-0.011715 -0.021265 0.314227
-0.007244 -0.015775 0.314760
-0.002709 -0.010737 0.324095
0.001880 -0.005015 0.324263
0.006448 0.000725 0.324239
0.010993 0.006480 0.324023
0.015511 0.012245 0.323615
0.020000 0.018016 0.323017
0.024456 0.023790 0.322227
0.028877 0.029563 0.321247
0.033258 0.035329 0.320077
0.038975 0.042277 0.327532
0.043408 0.048205 0.325936
0.049444 0.055674 0.332855
0.053912 0.061745 0.330812
0.058323 0.067787 0.328572
0.064726 0.075906 0.334644
0.071569 0.084604 0.341301
0.078371 0.093385 0.346644
0.085353 0.102474 0.351604
0.089947 0.109041 0.348012
0.097139 0.118545 0.352264
0.098886 0.121989 0.340207
0.109055 0.135046 0.351661
0.116561 0.145195 0.354729
0.124192 0.155596 0.357342
0.135188 0.170082 0.366948
0.143145 0.181115 0.368481
0.147731 0.188194 0.362332
0.159319 0.203809 0.370051
0.167514 0.215443 0.370067
0.179522 0.231884 0.376298
0.187912 0.244002 0.375095
0.196333 0.256262 0.373345
0.213269 0.279354 0.384240
0.230107 0.302570 0.393173
0.243068 0.321075 0.394921
0.260418 0.345391 0.401445
0.278019 0.370272 0.406634
0.287021 0.384209 0.399751
0.318816 0.428077 0.418644
0.341586 0.460518 0.424431
0.369195 0.499675 0.433160
0.402288 0.546511 0.444705
0.439944 0.599910 0.457379
0.478000 0.654364 0.466887
0.526529 0.723507 0.481520
0.574952 0.793169 0.491583
0.648693 0.898106 0.515478
0.737813 1.025185 0.542843
0.847413 1.181769 0.574700
0.983201 1.376203 0.611474
1.169855 1.643449 0.662511
1.448599 2.042346 0.740462
1.916635 2.711722 0.874514
2.177448 3.094085 0.885654
2.197608 3.137623 0.791539
2.237218 3.209193 0.701654
2.356847 3.396180 0.628145
1.291046 1.874362 0.305306
2.076987 3.036444 0.271964
1.536808 2.260149 0.141792
2.083001 3.073323 0.079443
-0.848964 -2.311443 0.091853
-0.778724 -2.132814 0.147650
-0.717959 -1.978211 0.195373
-0.581611 -1.609815 0.212334
-0.507461 -1.411845 0.231360
-0.443128 -1.239048 0.243494
-0.391404 -1.099926 0.252437
-0.354907 -1.002734 0.262813
-0.319251 -0.906618 0.268140
-0.292322 -0.834649 0.274819
-0.268907 -0.772004 0.280417
-0.242837 -0.700563 0.279662
-0.225675 -0.654721 0.284264
-0.211457 -0.617086 0.289641
-0.194865 -0.571676 0.289703
-0.180897 -0.533615 0.290616
-0.170005 -0.504481 0.293827
-0.154400 -0.460198 0.287531
-0.148837 -0.446802 0.295912
-0.140945 -0.425825 0.299261
-0.133192 -0.404967 0.301618
-0.125589 -0.384264 0.302991
-0.117904 -0.362956 0.302833
-0.110640 -0.342677 0.302257
-0.103556 -0.322655 0.300739
-0.098663 -0.309670 0.303905
-0.091908 -0.290126 0.300732
-0.087234 -0.277399 0.302635
-0.084457 -0.271083 0.310155
-0.074666 -0.239894 0.292229
-0.072080 -0.233816 0.298718
-0.069464 -0.227570 0.305033
-0.066820 -0.221160 0.311169
-0.061200 -0.203543 0.303221
-0.058646 -0.197162 0.308693
-0.054735 -0.185462 0.306744
-0.050945 -0.173982 0.304336
-0.047149 -0.162203 0.300647
-0.044749 -0.155857 0.304978
-0.041283 -0.144959 0.301373
-0.038937 -0.138582 0.305228
-0.035670 -0.128054 0.300918
-0.034230 -0.125526 0.312398
-0.031100 -0.115207 0.307519
-0.028815 -0.108653 0.310549
-0.025901 -0.098779 0.305024
-0.024251 -0.095303 0.316062
-0.021489 -0.085701 0.310006
-0.019293 -0.079060 0.312224
-0.017105 -0.072359 0.314259
-0.014652 -0.063432 0.307379
-0.012557 -0.056841 0.308989
-0.010475 -0.050205 0.310418
-0.008408 -0.043528 0.311665
-0.006358 -0.036814 0.312729
-0.004258 -0.031127 0.322545
-0.002312 -0.023294 0.314303
-0.000320 -0.016499 0.314813
0.001649 -0.009685 0.315138
0.003926 -0.003013 0.324270
0.005516 0.003976 0.315231
0.007868 0.011115 0.323982
0.009797 0.018180 0.323551
0.011695 0.025239 0.322928
0.013563 0.032287 0.322115
0.015398 0.039318 0.321111
0.017200 0.046329 0.319917
0.019781 0.054973 0.327343
0.020697 0.060269 0.316965
0.023316 0.069293 0.323909
0.025025 0.076393 0.321904
0.026694 0.083447 0.319708
0.029402 0.093214 0.325821
0.031037 0.100376 0.323169
0.032627 0.107475 0.320327
0.036759 0.121702 0.334689
0.038354 0.129104 0.331265
0.039898 0.136423 0.327645
0.042749 0.147686 0.331761
0.044233 0.155026 0.327642
0.048538 0.171137 0.338723
0.051466 0.183297 0.341543
0.052896 0.190901 0.336461
0.057361 0.208415 0.345797
0.058738 0.216136 0.340039
0.063276 0.234494 0.348129
0.066229 0.247855 0.348546
0.069170 0.261407 0.348452
0.072097 0.275135 0.347836
0.076727 0.295109 0.353089
0.079631 0.309298 0.351238
0.082503 0.323605 0.348836
0.087131 0.344582 0.351762
0.093767 0.373411 0.360102
0.094740 0.381547 0.349921
0.103004 0.417472 0.360858
0.105719 0.432787 0.354639
0.113981 0.469927 0.362658
0.120356 0.500381 0.364139
0.130684 0.547151 0.373796
0.136978 0.578626 0.371986
0.148923 0.633690 0.381114
0.156987 0.673898 0.379656
0.170919 0.739286 0.387814
0.184539 0.804683 0.392296
0.198242 0.871746 0.393867
0.217327 0.963285 0.400904
0.242172 1.081712 0.412079
0.268662 1.209809 0.419749
0.298637 1.356012 0.425564
0.339602 1.554561 0.436724
0.389460 1.797594 0.447127
0.423714 1.974157 0.431418
0.579416 2.717370 0.501899
0.654461 3.098545 0.481069
0.646091 3.092592 0.396062
0.650172 3.145835 0.317077
0.710418 3.471860 0.251980
0.711005 3.512765 0.160341
0.703865 3.516046 0.066518
0.097097 -3.393623 0.120898
0.100417 -3.272447 0.203968
0.106361 -3.240020 0.287565
0.110480 -3.160729 0.365048
0.104709 -2.836814 0.407488
0.093476 -2.414358 0.417950
0.079715 -1.975948 0.403376
0.069051 -1.646911 0.388420
0.062158 -1.426245 0.381573
0.057008 -1.259394 0.377222
0.053011 -1.128394 0.374488
0.049437 -1.015620 0.370647
0.045962 -0.913336 0.364452
0.043547 -0.836421 0.362373
0.040892 -0.761225 0.356884
0.038961 -0.702475 0.354548
0.037418 -0.653438 0.353637
0.035691 -0.604968 0.350384
0.034362 -0.565058 0.349083
0.032823 -0.524796 0.345418
0.031806 -0.493666 0.345058
0.030678 -0.462936 0.343284
0.029445 -0.432661 0.340117
0.028738 -0.410166 0.340842
0.027317 -0.380811 0.335149
0.027021 -0.365256 0.338778
0.026088 -0.343704 0.336626
0.025089 -0.322530 0.333556
0.024688 -0.308288 0.335754
0.023570 -0.287803 0.331072
0.022397 -0.267789 0.325525
0.021172 -0.248278 0.319135
0.021252 -0.240969 0.325560
0.021294 -0.233496 0.331792
0.019945 -0.214926 0.323596
0.019912 -0.207518 0.329147
0.018494 -0.189794 0.319716
0.018392 -0.182500 0.324610
0.017586 -0.170391 0.321660
0.016753 -0.158569 0.318273
0.015823 -0.146571 0.313585
0.014946 -0.135387 0.309351
0.014692 -0.128395 0.312822
0.014406 -0.121315 0.316110
0.014086 -0.114154 0.319212
0.013733 -0.106916 0.322126
0.013347 -0.099606 0.324849
0.011750 -0.086692 0.310293
0.011326 -0.079704 0.312489
0.010870 -0.072663 0.314501
0.010384 -0.065574 0.316327
0.009867 -0.058441 0.317968
0.009320 -0.051271 0.319421
0.008251 -0.042671 0.311808
0.007663 -0.035672 0.312849
0.007499 -0.029581 0.322646
0.006834 -0.022308 0.323340
0.006140 -0.015022 0.323843
0.005032 -0.007502 0.315166
0.004668 -0.000432 0.324275
0.003554 0.006620 0.315212
0.002776 0.013672 0.314957
0.001973 0.020713 0.314516
0.001145 0.027737 0.313891
0.000520 0.035917 0.322000
-0.000384 0.043124 0.320972
-0.001313 0.050299 0.319755
-0.002263 0.057437 0.318349
-0.003236 0.064532 0.316755
-0.004230 0.071580 0.314975
-0.005244 0.078576 0.313009
-0.006269 0.088289 0.319421
-0.007354 0.095388 0.317013
-0.008459 0.102417 0.314419
-0.009674 0.112806 0.319959
-0.010847 0.119898 0.316904
-0.012036 0.126904 0.313662
-0.013441 0.137888 0.318261
-0.014694 0.144915 0.314544
-0.016266 0.156815 0.319311
-0.017585 0.163853 0.315093
-0.019266 0.175650 0.318246
-0.021032 0.187713 0.320957
-0.022455 0.194769 0.315921
-0.024352 0.207131 0.317851
-0.026331 0.219715 0.319307
-0.028391 0.232505 0.320280
-0.029950 0.239505 0.314057
-0.032752 0.258635 0.320734
-0.035050 0.271940 0.320197
-0.038121 0.291858 0.325350
-0.039869 0.298941 0.317552
-0.043162 0.319386 0.321291
-0.044973 0.326340 0.312763
-0.048478 0.347217 0.315044
-0.052123 0.368412 0.316395
-0.056007 0.390707 0.317367
-0.059924 0.412448 0.316787
-0.063968 0.434401 0.315233
-0.069173 0.464243 0.317211
-0.073493 0.486623 0.313466
-0.079034 0.517031 0.312816
-0.084751 0.547701 0.310726
-0.091946 0.587608 0.311272
-0.099241 0.626954 0.309483
-0.106751 0.666558 0.305774
-0.118444 0.732414 0.309547
-0.129069 0.789443 0.306869
-0.141336 0.855274 0.303905
-0.154096 0.922357 0.297867
-0.172627 1.023192 0.296687
-0.191839 1.125421 0.290511
-0.215909 1.254060 0.284044
-0.246519 1.417996 0.276614
-0.285429 1.626131 0.266602
-0.336172 1.897113 0.252520
-0.412972 2.309443 0.235848
-0.487001 2.696056 0.195912
-0.511071 2.796354 0.127073
-0.670089 3.633588 0.055100
1.405506 -3.219261 0.135044
1.520653 -3.461470 0.241051
1.532797 -3.468690 0.341318
1.525290 -3.431638 0.437531
1.509789 -3.377027 0.529806
0.789524 -1.763225 0.349581
0.771565 -1.713302 0.391849
0.782355 -1.726728 0.446497
0.844199 -1.850854 0.531836
0.919889 -2.003280 0.633976
0.760234 -1.648297 0.581169
0.644476 -1.391181 0.541791
0.557979 -1.199160 0.512083
0.490188 -1.048829 0.488203
0.440990 -0.939221 0.473633
0.395161 -0.837903 0.456360
0.360203 -0.760267 0.445203
0.329340 -0.691955 0.434432
0.302159 -0.631961 0.424325
0.281692 -0.586289 0.419549
0.258315 -0.535282 0.408257
0.241921 -0.498857 0.404098
0.221940 -0.455724 0.392455
0.205864 -0.420820 0.384460
0.196470 -0.399424 0.385654
0.183903 -0.372088 0.380209
0.171479 -0.345352 0.373436
0.159223 -0.319261 0.365362
0.152905 -0.304779 0.367709
0.143930 -0.285435 0.363804
0.132145 -0.261064 0.352491
0.126338 -0.248100 0.353358
0.120549 -0.235303 0.353699
0.117517 -0.227662 0.360509
0.109059 -0.210276 0.352835
0.103374 -0.198075 0.351651
0.097742 -0.186103 0.349980
0.089731 -0.170110 0.340291
0.086666 -0.162900 0.345220
0.081238 -0.151695 0.342156
0.073697 -0.137069 0.330749
0.070644 -0.130145 0.334721
0.065494 -0.119823 0.330378
0.062390 -0.112942 0.333851
0.055318 -0.099817 0.319587
0.052281 -0.093227 0.322476
0.049186 -0.086584 0.325176
0.046036 -0.079891 0.327682
0.041361 -0.071036 0.321372
0.038205 -0.064464 0.323425
0.035001 -0.057860 0.325287
0.030580 -0.049725 0.318160
0.027390 -0.043275 0.319589
0.024160 -0.036806 0.320830
0.020892 -0.030322 0.321882
0.017588 -0.023829 0.322743
0.013605 -0.016871 0.314448
0.010882 -0.010830 0.323892
0.007485 -0.004335 0.324180
0.004062 0.002153 0.324276
0.000407 0.008251 0.315190
-0.002855 0.015085 0.323892
-0.006327 0.020729 0.314448
-0.009720 0.026932 0.313799
-0.013370 0.034309 0.321882
-0.016545 0.039245 0.311948
-0.019972 0.045346 0.310747
-0.023405 0.051405 0.309364
-0.026843 0.057418 0.307799
-0.031096 0.065590 0.314739
-0.033721 0.069287 0.304128
-0.038198 0.077737 0.310577
-0.041741 0.083716 0.308222
-0.045274 0.089625 0.305686
-0.048797 0.095462 0.302971
-0.052305 0.101222 0.300079
-0.057405 0.110442 0.305127
-0.060989 0.116217 0.301783
-0.066382 0.125799 0.306164
-0.070027 0.131562 0.302353
-0.073644 0.137224 0.298366
-0.079388 0.147192 0.301746
-0.083045 0.152804 0.297283
-0.089301 0.163564 0.300729
-0.092995 0.169115 0.295766
-0.099225 0.179589 0.297618
-0.105611 0.190234 0.299000
-0.112146 0.201033 0.299902
-0.115937 0.206483 0.293792
-0.125631 0.223038 0.300226
-0.132565 0.234211 0.299629
-0.136444 0.239584 0.292500
-0.146775 0.256821 0.296879
-0.150678 0.262083 0.289052
-0.161381 0.279674 0.292004
-0.168809 0.291150 0.288754
-0.176308 0.302637 0.284956
-0.187563 0.320703 0.285501
-0.195253 0.332259 0.280394
-0.211114 0.358082 0.284212
-0.219026 0.369721 0.277542
-0.230949 0.388223 0.274378
-0.243011 0.406777 0.270218
-0.255193 0.425352 0.265052
-0.267475 0.443915 0.258875
-0.288363 0.476919 0.258121
-0.305224 0.502782 0.252462
-0.327095 0.536810 0.248413
-0.348706 0.570065 0.242100
-0.374980 0.610749 0.236169
-0.406520 0.659746 0.230162
-0.437835 0.707894 0.221020
-0.483201 0.778586 0.213901
-0.520161 0.834898 0.199846
-0.580701 0.928906 0.188230
-0.641113 1.021809 0.170755
-0.726035 1.153187 0.151161
-0.840489 1.330514 0.126315
-0.997990 1.574633 0.092551
-1.214797 1.910343 0.043589
1.488771 -1.469517 0.050507
1.296767 -1.275755 0.097346
1.336716 -1.309158 0.147910
1.564117 -1.523719 0.222603
1.563536 -1.516552 0.279681
1.555447 -1.502159 0.335397
1.546303 -1.486800 0.390446
1.529710 -1.464404 0.443128
3.337661 -3.170093 1.036343
1.359243 -1.290517 0.499998
1.334040 -1.260961 0.541823
1.320691 -1.242661 0.587103
1.319013 -1.235289 0.637169
1.478765 -1.377257 0.766318
1.244013 -1.154487 0.701295
1.048653 -0.969866 0.640713
0.911045 -0.839622 0.600140
0.799246 -0.734004 0.565699
0.712765 -0.652229 0.540065
0.639909 -0.583454 0.517707
0.584903 -0.531271 0.503538
0.525589 -0.475748 0.481555
0.483620 -0.436088 0.469881
0.442927 -0.397922 0.456074
0.408423 -0.365532 0.444970
0.374526 -0.333982 0.431690
0.351280 -0.311939 0.427012
0.323778 -0.286452 0.415725
0.301934 -0.266043 0.408793
0.280501 -0.246184 0.400565
0.264375 -0.230989 0.397449
0.238489 -0.207786 0.379616
0.223147 -0.193593 0.374372
0.217121 -0.187209 0.381987
0.202176 -0.173571 0.375358
0.196077 -0.167241 0.382215
0.181597 -0.154212 0.374256
0.167510 -0.141645 0.365520
0.153840 -0.129556 0.356033
0.140607 -0.117960 0.345822
0.134940 -0.112348 0.350519
0.129162 -0.106679 0.355006
0.120023 -0.098506 0.351255
0.107985 -0.088277 0.338952
0.105314 -0.085055 0.350725
0.093872 -0.075487 0.337521
0.088242 -0.070190 0.340570
0.077328 -0.061273 0.325499
0.071895 -0.056242 0.327982
0.066396 -0.051190 0.330270
0.058867 -0.044879 0.323668
0.055217 -0.041040 0.334257
0.047918 -0.035014 0.327151
0.040914 -0.029290 0.319755
0.036772 -0.025125 0.329859
0.030032 -0.019708 0.322000
0.024535 -0.014922 0.322837
0.019006 -0.010145 0.323484
0.013447 -0.005379 0.323939
0.007864 -0.000627 0.324203
0.002051 0.003812 0.315282
-0.003389 0.008373 0.315166
-0.008842 0.012910 0.314864
-0.014304 0.017419 0.314377
-0.019772 0.021899 0.313705
-0.024542 0.025302 0.303937
-0.030706 0.030757 0.311808
-0.036165 0.035128 0.310584
-0.041615 0.039458 0.309178
-0.047050 0.043743 0.307590
-0.050863 0.046216 0.297144
-0.057862 0.052165 0.303875
-0.065194 0.058338 0.310293
-0.070711 0.062550 0.307915
-0.073879 0.064392 0.296972
-0.081640 0.070788 0.302619
-0.084377 0.072239 0.291502
-0.092398 0.078762 0.296615
-0.100713 0.085466 0.301352
-0.102957 0.086451 0.289920
-0.111496 0.093247 0.294092
-0.116794 0.097017 0.290204
-0.122024 0.100703 0.286147
-0.131018 0.107714 0.289319
-0.140253 0.114856 0.292055
-0.137273 0.111238 0.272995
-0.133591 0.107108 0.254355
-0.138125 0.110141 0.249803
-0.137974 0.109156 0.238447
-0.142192 0.111912 0.233776
-0.141433 0.110462 0.222639
-0.145333 0.112948 0.217882
-0.149142 0.115343 0.213005
-0.152857 0.117647 0.208013
-0.156476 0.119857 0.202909
-0.159996 0.121974 0.197696
-0.169086 0.128594 0.197639
-0.166726 0.125920 0.186959
-0.164027 0.123015 0.176571
-0.167012 0.124683 0.171160
-0.176012 0.131108 0.170131
-0.172657 0.127732 0.160080
-0.181634 0.134070 0.158474
-0.184268 0.135399 0.152527
-0.193286 0.141677 0.150134
-0.195761 0.142843 0.143826
-0.198106 0.143904 0.137449
-0.220566 0.160337 0.139924
-0.264542 0.192985 0.149551
-0.315311 0.230464 0.158608
-0.430096 0.315824 0.185345
-0.504479 0.370078 0.192241
-0.543549 0.397468 0.185008
-0.575644 0.419426 0.173766
-0.629960 0.457616 0.164858
-0.690812 0.500270 0.153572
-0.744537 0.537316 0.137567
-0.251118 0.174981 0.067453
-0.230077 0.158888 0.058121
-0.216046 0.148008 0.050393
8.539904 -3.820870 0.101968
1.907755 -0.849379 0.166772
2.195237 -0.970611 0.248177
2.273691 -0.999131 0.320867
2.302090 -1.005501 0.390810
2.319662 -1.007016 0.460809
2.335469 -1.007642 0.531916
2.357553 -1.010812 0.606001
2.377697 -1.012994 0.681540
2.597645 -1.098997 0.818541
2.580609 -1.084781 0.892073
2.561779 -1.069850 0.965024
2.533338 -1.050993 1.034288
2.268790 -0.935598 1.003442
1.768070 -0.725651 0.849558
1.435405 -0.586321 0.745966
1.223001 -0.497042 0.683870
1.058890 -0.428165 0.635068
0.934438 -0.375871 0.599153
0.826757 -0.330853 0.565717
0.750498 -0.298663 0.546111
0.681894 -0.269858 0.526958
0.615411 -0.242258 0.504854
0.563187 -0.220453 0.489415
0.519460 -0.202145 0.477486
0.476641 -0.184430 0.463402
0.440485 -0.169428 0.452439
0.399584 -0.152909 0.434347
0.372025 -0.141469 0.426710
0.339115 -0.128281 0.411394
0.318776 -0.119751 0.407628
0.298824 -0.111476 0.402968
0.278679 -0.103254 0.396674
0.259611 -0.095524 0.390277
0.241018 -0.088075 0.383056
0.227915 -0.082570 0.382342
0.214992 -0.077197 0.381123
0.197637 -0.070473 0.371836
0.180859 -0.064057 0.361816
0.173206 -0.060599 0.366725
0.157280 -0.054650 0.355552
0.145878 -0.050178 0.351761
0.134753 -0.045864 0.347548
0.123919 -0.041713 0.342927
0.113388 -0.037727 0.337913
0.106256 -0.034720 0.340937
0.099043 -0.031713 0.343757
0.086112 -0.027356 0.328279
0.079191 -0.024534 0.330542
0.072207 -0.021718 0.332610
0.065164 -0.018910 0.334480
0.056244 -0.015813 0.327343
0.049315 -0.013111 0.328770
0.042343 -0.010424 0.330002
0.034163 -0.007703 0.322115
0.027340 -0.005132 0.322928
0.020491 -0.002580 0.323551
0.013109 -0.000246 0.314999
0.006441 0.002182 0.315231
-0.000239 0.004587 0.315277
-0.006927 0.006966 0.315138
-0.013618 0.009318 0.314813
-0.020308 0.011642 0.314303
-0.026991 0.013936 0.313608
-0.033663 0.016198 0.312729
-0.040320 0.018427 0.311665
-0.046957 0.020622 0.310418
-0.051861 0.021816 0.300206
-0.058224 0.023867 0.298649
-0.064555 0.025879 0.296918
-0.073209 0.029025 0.303619
-0.079675 0.031026 0.301472
-0.086094 0.032984 0.299148
-0.092460 0.034899 0.296650
-0.098769 0.036768 0.293979
-0.105017 0.038592 0.291137
-0.114824 0.041918 0.296217
-0.121140 0.043704 0.292933
-0.127379 0.045439 0.289479
-0.129309 0.045407 0.278099
-0.139608 0.048755 0.282070
-0.145590 0.050334 0.278119
-0.156282 0.053727 0.281386
-0.162258 0.055245 0.276981
-0.173302 0.058667 0.279514
-0.179241 0.060112 0.274646
-0.185063 0.061498 0.269620
-0.196465 0.064911 0.271083
-0.208731 0.068575 0.272793
-0.214522 0.069853 0.266965
-0.226368 0.073262 0.267132
-0.238380 0.076670 0.266802
-0.250542 0.080071 0.265967
-0.262836 0.083458 0.264621
-0.268449 0.084510 0.257329
-0.287753 0.090169 0.260364
-0.293270 0.091118 0.252399
-0.312986 0.096757 0.253985
-0.318353 0.097586 0.245341
-0.338390 0.103175 0.245445
-0.351109 0.106307 0.240356
-0.371479 0.111830 0.238745
-0.384253 0.114850 0.232343
-0.404838 0.120270 0.228987
-0.417570 0.123149 0.221256
-0.439142 0.128707 0.216485
-0.459870 0.133910 0.210339
-0.480603 0.139021 0.203188
-0.509583 0.146525 0.197526
-0.513587 0.146442 0.183598
-0.517239 0.146249 0.169574
-0.597610 0.168576 0.171949
-0.643525 0.180494 0.163545
-0.689449 0.192207 0.152742
-0.735292 0.203692 0.139535
-0.799152 0.220093 0.125781
-0.861891 0.235893 0.108566
-0.933957 0.254024 0.088472
-1.039352 0.281071 0.065204
