-0.048654 0.259906 0.341730
-0.053858 0.285547 0.354398
-0.057239 0.299499 0.353089
-0.061806 0.319962 0.357469
-0.065398 0.334273 0.354896
-0.070398 0.356101 0.358300
-0.075438 0.377541 0.360102
-0.080640 0.399287 0.360960
-0.087338 0.428430 0.366190
-0.094278 0.458071 0.370061
-0.101451 0.488160 0.372549
-0.111966 0.534482 0.383654
-0.119671 0.565554 0.382887
-0.132270 0.620086 0.393690
-0.142102 0.659809 0.393513
-0.158969 0.732489 0.407550
-0.174539 0.797305 0.413778
-0.190763 0.863737 0.417139
-0.214304 0.962646 0.429895
-0.240560 1.071824 0.440957
-0.273086 1.207071 0.454879
-0.310277 1.360349 0.466981
-0.363735 1.582544 0.490134
-0.440218 1.901138 0.525507
-0.546594 2.342969 0.571143
-0.585120 2.484440 0.533605
-0.585292 2.460153 0.460804
-0.642754 2.677753 0.424125
-0.638242 2.632886 0.345965
-0.719981 2.945244 0.301774
-0.744800 3.019028 0.226557
-1.882069 7.600214 0.297568
-1.905827 7.626191 0.092766
1.032244 -1.973674 0.094622
0.857429 -1.633305 0.134353
0.719459 -1.365610 0.160238
0.627346 -1.186333 0.180524
0.555680 -1.046882 0.196062
0.500445 -0.939223 0.209001
0.453782 -0.848418 0.219117
0.419068 -0.780386 0.229326
0.388835 -0.721188 0.237966
0.357977 -0.661450 0.243010
0.331688 -0.610537 0.247483
0.309513 -0.567501 0.251854
0.291448 -0.532211 0.256811
0.272873 -0.496369 0.259490
0.254747 -0.461676 0.260591
0.240729 -0.434524 0.263429
0.230763 -0.414691 0.268667
0.220753 -0.394968 0.272899
0.206732 -0.368539 0.271872
0.200235 -0.355239 0.277885
0.186304 -0.329430 0.274460
0.180208 -0.317118 0.279413
0.174066 -0.304836 0.283809
0.167887 -0.292603 0.287652
0.157978 -0.274303 0.285497
0.151812 -0.262352 0.288062
0.145640 -0.250502 0.290093
0.139474 -0.238771 0.291597
0.129864 -0.221607 0.286412
0.127193 -0.215728 0.293050
0.121098 -0.204447 0.293015
0.115046 -0.193345 0.292485
0.109047 -0.182438 0.291469
0.103109 -0.171739 0.289976
0.096907 -0.160749 0.287227
0.094054 -0.154973 0.292054
0.088279 -0.144827 0.289319
0.085350 -0.139038 0.293672
0.082344 -0.133164 0.297855
0.076695 -0.123467 0.294092
0.071164 -0.114059 0.289920
0.068132 -0.108325 0.293353
0.065034 -0.102526 0.296615
0.061872 -0.096668 0.299704
0.058648 -0.090755 0.302619
0.053403 -0.082174 0.296972
0.050170 -0.076356 0.299448
0.046883 -0.070497 0.301749
0.045178 -0.066633 0.312489
0.040156 -0.058672 0.305822
0.036720 -0.052714 0.307590
0.033240 -0.046732 0.309178
0.029716 -0.040730 0.310584
0.026153 -0.034712 0.311808
0.022552 -0.028682 0.312849
0.018915 -0.022644 0.313705
0.015245 -0.016603 0.314377
0.011544 -0.010564 0.314864
0.007816 -0.004529 0.315166
0.004062 0.001496 0.315282
0.000285 0.007508 0.315212
-0.003443 0.014067 0.323939
-0.007384 0.020238 0.323484
-0.011341 0.026382 0.322837
-0.015310 0.032495 0.322000
-0.019289 0.038572 0.320972
-0.023844 0.046158 0.328602
-0.027963 0.052346 0.327151
-0.032909 0.060416 0.334257
-0.036200 0.064568 0.323669
-0.041396 0.072905 0.330270
-0.046840 0.081553 0.336544
-0.051190 0.087820 0.333986
-0.055526 0.094013 0.331230
-0.061613 0.103508 0.337521
-0.069487 0.116175 0.350726
-0.074149 0.122664 0.347082
-0.080751 0.132620 0.351256
-0.087566 0.142812 0.355007
-0.092373 0.149325 0.350519
-0.099475 0.159785 0.353505
-0.106772 0.170444 0.356033
-0.116832 0.185669 0.365521
-0.124614 0.196839 0.366965
-0.132565 0.208161 0.367912
-0.143603 0.224455 0.375358
-0.151981 0.236183 0.375131
-0.163652 0.253131 0.381074
-0.172413 0.265189 0.379616
-0.185037 0.283298 0.384692
-0.201094 0.306642 0.394355
-0.214085 0.324880 0.396718
-0.231041 0.349121 0.404002
-0.248461 0.373811 0.409969
-0.266322 0.398908 0.414590
-0.289008 0.431134 0.423737
-0.315895 0.469411 0.435609
-0.339345 0.502063 0.440355
-0.371767 0.547886 0.452698
-0.405463 0.595130 0.462857
-0.448234 0.655392 0.478393
-0.492500 0.717237 0.490781
-0.550871 0.799215 0.510721
-0.624928 0.903324 0.537128
-0.714692 1.029253 0.567533
-0.825393 1.184249 0.603135
-0.977481 1.397358 0.653637
-1.186342 1.689774 0.721610
-1.509088 2.141826 0.828448
-2.023912 2.862196 0.994168
-3.132097 4.413981 1.359744
-3.166139 4.440526 1.219580
-3.192965 4.456852 1.076483
-3.196873 4.441226 0.926947
-3.213931 4.444087 0.782263
-3.159850 4.348865 0.624873
-3.596659 4.928853 0.542135
-3.635615 4.959680 0.384349
-3.671623 4.986303 0.224366
-3.710549 5.016723 0.062401
1.260083 -0.428284 0.048322
1.097294 -0.371245 0.078153
0.967905 -0.325975 0.100951
0.880668 -0.295104 0.120261
0.811035 -0.270357 0.136812
0.749620 -0.248584 0.150753
0.695544 -0.229446 0.162628
0.642286 -0.210821 0.171765
0.614184 -0.200370 0.183725
0.568281 -0.184485 0.189721
0.539983 -0.174275 0.198247
0.503385 -0.161645 0.202724
0.475085 -0.151719 0.208092
0.463066 -0.146848 0.218059
0.434784 -0.137153 0.220969
0.413728 -0.129741 0.225521
0.401478 -0.125019 0.233123
0.381332 -0.118047 0.236270
0.361287 -0.111200 0.238437
0.348972 -0.106661 0.243947
0.336617 -0.102164 0.248908
0.316864 -0.095650 0.248599
0.297341 -0.089297 0.247349
0.285222 -0.085076 0.250287
0.280163 -0.082825 0.258005
0.268022 -0.078689 0.260081
0.249209 -0.072842 0.255954
0.237380 -0.068925 0.256815
0.225667 -0.065096 0.257172
0.220401 -0.062968 0.263245
0.208135 -0.059095 0.262081
0.196735 -0.055501 0.261126
0.191351 -0.053434 0.266400
0.185830 -0.051348 0.271523
0.174677 -0.047949 0.269483
0.169068 -0.045896 0.274146
0.163336 -0.043830 0.278651
0.157486 -0.041753 0.282996
0.146745 -0.038629 0.279619
0.140860 -0.036602 0.283509
0.134872 -0.034569 0.287235
0.124587 -0.031690 0.282877
0.118605 -0.029717 0.286159
0.112534 -0.027744 0.289275
0.102789 -0.025128 0.283996
0.096764 -0.023225 0.286681
0.090666 -0.021326 0.289201
0.084500 -0.019434 0.291553
0.078270 -0.017548 0.293736
0.071980 -0.015672 0.295748
0.065635 -0.013807 0.297587
0.059239 -0.011953 0.299253
0.052796 -0.010112 0.300744
0.046311 -0.008287 0.302060
0.039788 -0.006477 0.303199
0.033232 -0.004685 0.304160
0.027620 -0.002792 0.313890
0.020784 -0.000978 0.314516
0.013928 0.000813 0.314957
0.007345 0.002880 0.324203
0.000175 0.004325 0.315282
-0.006883 0.006456 0.324155
-0.014002 0.008203 0.323843
-0.021116 0.009921 0.323340
-0.028221 0.011609 0.322646
-0.035313 0.013266 0.321761
-0.045012 0.016259 0.338440
-0.052515 0.017952 0.337094
-0.059988 0.019608 0.335548
-0.067425 0.021227 0.333802
-0.077036 0.023689 0.340536
-0.087316 0.026309 0.347902
-0.095082 0.027904 0.345416
-0.105664 0.030474 0.351190
-0.116615 0.033085 0.356596
-0.121307 0.033526 0.345024
-0.136057 0.037267 0.358037
-0.147835 0.039933 0.362345
-0.163876 0.043842 0.374230
-0.172345 0.045330 0.369682
-0.189400 0.049341 0.380456
-0.202586 0.052104 0.382874
-0.216036 0.054870 0.384813
-0.229734 0.057633 0.386261
-0.248794 0.061805 0.394463
-0.268444 0.066020 0.401870
-0.288656 0.070269 0.408455
-0.304351 0.073215 0.408135
-0.331302 0.079002 0.419809
-0.353045 0.083302 0.423775
-0.381428 0.089159 0.433167
-0.410550 0.095043 0.441291
-0.446885 0.102535 0.454108
-0.484918 0.110238 0.465886
-0.523121 0.117778 0.475273
-0.576100 0.128592 0.493796
-0.624086 0.137966 0.505086
-0.686761 0.150457 0.523682
-0.750843 0.162942 0.539225
-0.832066 0.178928 0.561521
-0.937864 0.199917 0.593203
-1.052780 0.222353 0.623349
-1.210073 0.253322 0.668431
-1.403180 0.291107 0.721269
-1.671536 0.343711 0.796436
-2.068928 0.421713 0.909618
-0.921702 0.181804 0.401042
-0.930968 0.181376 0.376338
-0.863023 0.165522 0.326365
-0.896723 0.170067 0.311125
-0.868544 0.162423 0.277710
-0.874613 0.161526 0.254509
-0.880081 0.160508 0.231163
-0.876240 0.157738 0.206082
-0.862960 0.153256 0.179979
-0.901618 0.158363 0.161563
-0.862929 0.147389 0.110143
-0.882351 0.148892 0.088087
-0.874629 0.145598 0.064452
1.228682 0.073225 0.052061
1.092277 0.066707 0.079875
0.974309 0.060896 0.101661
0.899792 0.057693 0.121016
0.825991 0.054232 0.136622
0.759961 0.051050 0.149513
0.712574 0.049045 0.162100
0.673905 0.047542 0.173976
0.626375 0.045146 0.181989
0.586671 0.043212 0.189521
0.548000 0.041199 0.195339
0.518041 0.039799 0.201844
0.488144 0.038278 0.206890
0.475222 0.038231 0.216593
0.445448 0.036504 0.219184
0.406720 0.033756 0.216458
0.410173 0.035124 0.230788
0.397034 0.034794 0.237575
0.375881 0.033556 0.239672
0.354909 0.032243 0.240799
0.341873 0.031727 0.245512
0.328843 0.031158 0.249681
0.315839 0.030539 0.253309
0.295546 0.028986 0.251260
0.282791 0.028267 0.253628
0.270124 0.027503 0.255474
0.257563 0.026697 0.256803
0.251880 0.026747 0.263506
0.239430 0.025864 0.263999
0.227137 0.024946 0.263994
0.214321 0.023895 0.262788
0.208505 0.023803 0.268356
0.196628 0.022789 0.267049
0.190712 0.022631 0.272152
0.184666 0.022438 0.277100
0.173124 0.021340 0.274718
0.167022 0.021083 0.279203
0.155820 0.019940 0.276084
0.149693 0.019625 0.280114
0.143466 0.019275 0.283984
0.132756 0.018073 0.279872
0.126546 0.017669 0.283297
0.120251 0.017232 0.286558
0.113876 0.016762 0.289652
0.103882 0.015501 0.284340
0.100901 0.015723 0.295336
0.091204 0.014434 0.289504
0.084773 0.013853 0.291835
0.078285 0.013242 0.293997
0.071747 0.012599 0.295987
0.065161 0.011926 0.297805
0.058534 0.011222 0.299449
0.051869 0.010489 0.300918
0.045171 0.009726 0.302212
0.039735 0.009465 0.312220
0.032753 0.008616 0.313191
0.025752 0.007738 0.313979
0.018736 0.006831 0.314581
0.011710 0.005897 0.314999
0.004804 0.005315 0.324222
-0.002351 0.003946 0.315277
-0.009719 0.003245 0.324126
-0.016969 0.002170 0.323791
-0.024203 0.001070 0.323264
-0.031416 -0.000055 0.322545
-0.038605 -0.001204 0.321637
-0.047266 -0.002242 0.329410
-0.056351 -0.003379 0.336912
-0.063890 -0.004671 0.335341
-0.073568 -0.005969 0.342300
-0.081231 -0.007344 0.340272
-0.088835 -0.008739 0.338041
-0.099546 -0.010270 0.345090
-0.110333 -0.011896 0.350829
-0.121475 -0.013624 0.356198
-0.132962 -0.015453 0.361182
-0.144779 -0.017384 0.365765
-0.156913 -0.019417 0.369934
-0.169351 -0.021550 0.373674
-0.182078 -0.023783 0.376972
-0.190539 -0.025662 0.372056
-0.208339 -0.028547 0.382188
-0.221841 -0.031075 0.384082
-0.240693 -0.034287 0.392861
-0.254820 -0.037049 0.393623
-0.274628 -0.040583 0.400964
-0.294967 -0.044297 0.407482
-0.316456 -0.048275 0.413909
-0.337785 -0.052347 0.418694
-0.359552 -0.056592 0.422587
-0.388072 -0.061910 0.431884
-0.423788 -0.068429 0.446056
-0.453793 -0.074294 0.452606
-0.491953 -0.081552 0.464257
-0.537152 -0.090105 0.479129
-0.576301 -0.097936 0.486436
-0.631397 -0.108536 0.502994
-0.694201 -0.120684 0.521380
-0.765774 -0.134619 0.541556
-0.832004 -0.148008 0.554088
-0.937014 -0.168416 0.585127
-1.060546 -0.192599 0.619827
-1.210091 -0.222028 0.660356
-1.362220 -0.252663 0.693257
-1.671688 -0.312854 0.787249
-1.896251 -0.358808 0.827869
-2.430967 -0.464207 0.974417
-0.980166 -0.198409 0.333088
-1.020953 -0.208846 0.315892
-1.027089 -0.212513 0.288531
-1.023872 -0.214292 0.259193
-1.037224 -0.219433 0.233324
-1.027012 -0.222103 0.175374
-0.976949 -0.213847 0.142564
-1.013770 -0.223963 0.118933
-1.023631 -0.228394 0.092147
-1.032799 -0.232704 0.064858
0.254676 0.116198 0.047136
0.246191 0.112727 0.054141
0.245635 0.113104 0.061224
0.244910 0.113401 0.068296
0.236006 0.109646 0.074326
0.242957 0.113753 0.082385
0.249666 0.117783 0.090884
0.240341 0.113776 0.096370
0.230951 0.109690 0.101359
0.237071 0.113467 0.110213
0.227479 0.109230 0.114659
0.225510 0.108877 0.121239
0.223390 0.108443 0.127767
0.221119 0.107927 0.134237
0.218700 0.107329 0.140646
0.230782 0.114383 0.154030
0.308231 0.156243 0.202245
0.339751 0.174074 0.230980
0.320828 0.165009 0.232587
0.322878 0.167185 0.246330
0.310873 0.161744 0.251205
0.305584 0.159923 0.260304
0.286950 0.150728 0.259316
0.268622 0.141593 0.257395
0.256943 0.136062 0.259912
0.245360 0.130522 0.261904
0.239930 0.128405 0.269101
0.210751 0.112716 0.252521
0.187705 0.100338 0.239784
0.182886 0.098350 0.245287
0.183395 0.099459 0.257072
0.183475 0.100352 0.269041
0.177990 0.097978 0.274436
0.167428 0.092548 0.272779
0.161888 0.090079 0.277707
0.156245 0.087532 0.282474
0.146052 0.082165 0.279752
0.140394 0.079543 0.284056
0.130553 0.074275 0.280607
0.124907 0.071595 0.284456
0.119184 0.068847 0.288140
0.113389 0.066033 0.291658
0.104172 0.060939 0.286953
0.101600 0.060214 0.298182
0.092643 0.055188 0.292933
0.086796 0.052226 0.295668
0.080900 0.049208 0.298232
0.074959 0.046138 0.300621
0.066794 0.041396 0.294255
0.060975 0.038330 0.296224
0.056908 0.036626 0.306729
0.049249 0.032063 0.299642
0.043350 0.028866 0.301090
0.038605 0.026707 0.311219
0.032468 0.023321 0.312351
0.025555 0.019047 0.304373
0.020166 0.016441 0.314064
0.014009 0.012953 0.314644
0.007854 0.009435 0.315038
0.001706 0.005890 0.315247
-0.004432 0.002321 0.315270
-0.010554 -0.001270 0.315108
-0.017322 -0.004854 0.323735
-0.023604 -0.008602 0.323184
-0.029858 -0.012365 0.322442
-0.037347 -0.016477 0.330413
-0.043729 -0.020384 0.329255
-0.050069 -0.024297 0.327901
-0.058224 -0.028917 0.335130
-0.064660 -0.032959 0.333335
-0.071039 -0.036999 0.331341
-0.079796 -0.042103 0.337747
-0.089157 -0.047575 0.344762
-0.095733 -0.051849 0.342018
-0.108230 -0.058976 0.355797
-0.115008 -0.063459 0.352469
-0.121693 -0.067921 0.348930
-0.135360 -0.075944 0.361338
-0.145909 -0.082501 0.365143
-0.156689 -0.089260 0.368510
-0.167688 -0.096215 0.371426
-0.178891 -0.103358 0.373879
-0.190284 -0.110683 0.375855
-0.206395 -0.120673 0.384704
-0.218281 -0.128452 0.385557
-0.230310 -0.136388 0.385895
-0.247464 -0.147296 0.392641
-0.265020 -0.158559 0.398547
-0.288822 -0.173536 0.410951
-0.301829 -0.182443 0.408473
-0.320439 -0.194698 0.411712
-0.350706 -0.213935 0.426276
-0.370114 -0.226961 0.427299
-0.401603 -0.247323 0.438896
-0.434421 -0.268707 0.449400
-0.473338 -0.294009 0.462911
-0.506746 -0.316228 0.469041
-0.554081 -0.347204 0.483940
-0.601532 -0.378579 0.495614
-0.656272 -0.414794 0.509215
-0.719219 -0.456500 0.524578
-0.795791 -0.507179 0.544239
-0.894653 -0.572441 0.571846
-1.029375 -0.661128 0.612510
-1.096376 -0.707503 0.609302
-1.269123 -0.822155 0.652563
-1.529733 -0.994631 0.723311
-1.894161 -1.236158 0.819198
-2.479121 -1.623844 0.973642
-3.121455 -2.052974 1.109291
-3.124335 -2.065228 1.006697
-3.124891 -2.075888 0.904355
-3.123146 -2.084953 0.802341
-3.119128 -2.092424 0.700729
-3.127646 -2.108228 0.602228
-3.119196 -2.112584 0.501177
-3.115966 -2.120375 0.401596
-3.109758 -2.126070 0.302170
-3.109660 -2.135864 0.203509
-3.107437 -2.144159 0.104738
1.259100 1.375455 0.068156
1.061524 1.163102 0.105718
0.923975 1.015534 0.133908
0.811487 0.894623 0.154962
0.735870 0.813940 0.173885
0.665800 0.738790 0.188250
0.607859 0.676681 0.200378
0.562575 0.628387 0.211867
0.517541 0.579952 0.220007
0.472208 0.530743 0.224565
0.444993 0.501935 0.233340
0.417937 0.473054 0.240171
0.390469 0.443437 0.244748
0.358390 0.408166 0.244590
0.343030 0.392179 0.252075
0.322382 0.369817 0.254995
0.301977 0.347535 0.256473
0.292234 0.337741 0.264473
0.277360 0.321722 0.267714
0.262092 0.305082 0.269480
0.247582 0.289201 0.270735
0.233284 0.273426 0.271025
0.228697 0.269379 0.280353
0.214691 0.253721 0.279141
0.205493 0.243857 0.282379
0.196377 0.234004 0.285076
0.187355 0.224178 0.287238
0.174232 0.209087 0.282943
0.165549 0.199467 0.283880
0.156997 0.189922 0.284306
0.148589 0.180464 0.284231
0.144070 0.175950 0.290266
0.132243 0.161867 0.282611
0.127813 0.157343 0.287999
0.119579 0.147747 0.285373
0.115151 0.143133 0.290264
0.107564 0.134225 0.287643
0.103147 0.129532 0.292060
0.098674 0.124736 0.296307
0.094151 0.119840 0.300381
0.087027 0.111251 0.296435
0.080138 0.102877 0.292085
0.075762 0.098014 0.295412
0.071351 0.093069 0.298566
0.066908 0.088047 0.301547
0.062435 0.082949 0.304351
0.056240 0.075146 0.298540
0.051865 0.070077 0.300907
0.046066 0.062651 0.294510
0.043064 0.059756 0.305113
0.038644 0.054511 0.306948
0.034214 0.049213 0.308604
0.028962 0.042274 0.301258
0.025343 0.038477 0.311370
0.021429 0.034279 0.321380
0.016474 0.027576 0.313406
0.012048 0.022074 0.314147
0.007633 0.016542 0.314703
0.003231 0.010984 0.315074
-0.001155 0.005403 0.315260
-0.005521 -0.000195 0.315260
-0.010366 -0.005867 0.324060
-0.014828 -0.011677 0.323677
-0.019261 -0.017494 0.323102
-0.023662 -0.023314 0.322336
-0.028027 -0.029132 0.321380
-0.033562 -0.035940 0.329096
-0.037985 -0.041930 0.327718
-0.043846 -0.049273 0.334917
-0.048310 -0.055417 0.333096
-0.052721 -0.061537 0.331078
-0.057077 -0.067629 0.328863
-0.065623 -0.078136 0.344430
-0.070128 -0.084544 0.341661
-0.074565 -0.090910 0.338688
-0.081321 -0.099876 0.343776
-0.088247 -0.109146 0.348473
-0.092701 -0.115708 0.344698
-0.102572 -0.128561 0.356635
-0.107085 -0.135333 0.352227
-0.114482 -0.145550 0.355336
-0.122002 -0.156021 0.357991
-0.129635 -0.166735 0.360180
-0.137372 -0.177679 0.361891
-0.145200 -0.188843 0.363113
-0.153109 -0.200211 0.363834
-0.161088 -0.211773 0.364044
-0.176517 -0.232817 0.377255
-0.188572 -0.249826 0.382703
-0.193084 -0.257373 0.374399
-0.209762 -0.280608 0.385388
-0.218261 -0.293500 0.382208
-0.234991 -0.317229 0.390308
-0.247806 -0.336063 0.391359
-0.260725 -0.355210 0.391448
-0.282405 -0.386172 0.401318
-0.304901 -0.418537 0.410010
-0.327200 -0.450957 0.416315
-0.354269 -0.490142 0.425596
-0.377066 -0.523902 0.428027
-0.414443 -0.577917 0.442241
-0.447033 -0.625880 0.448609
-0.484598 -0.681176 0.456175
-0.537283 -0.758013 0.472208
-0.600029 -0.849650 0.490718
-0.677795 -0.963266 0.513671
-0.760437 -1.084860 0.532456
-0.878973 -1.258540 0.564695
-1.032685 -1.484047 0.604869
-1.166701 -1.683486 0.621040
-1.391609 -2.015693 0.665266
-1.782249 -2.590896 0.754450
-1.791288 -2.616627 0.673676
-1.794091 -2.633338 0.590489
-1.785623 -2.633512 0.504353
-1.785944 -2.646511 0.420940
-1.785040 -2.657680 0.337268
-1.777911 -2.659552 0.252810
-1.769589 -2.659532 0.168678
-1.770063 -2.672611 0.085159
1.542151 4.285246 0.117176
1.031395 2.878981 0.173407
0.785684 2.203520 0.204525
0.645057 1.818190 0.227296
0.538657 1.525724 0.240651
0.462906 1.317734 0.251036
0.405889 1.161337 0.259459
0.364308 1.047971 0.268432
0.328677 0.950555 0.275047
0.299483 0.870888 0.281132
0.273206 0.798801 0.285141
0.253086 0.744261 0.290996
0.230351 0.680940 0.290745
0.213594 0.635020 0.293782
0.197153 0.589374 0.294441
0.183572 0.551955 0.296318
0.172459 0.521730 0.299663
0.161821 0.492542 0.301949
0.149028 0.455978 0.298581
0.141197 0.434869 0.302211
0.131242 0.406486 0.300222
0.123750 0.385746 0.301667
0.116178 0.364398 0.301584
0.111108 0.351112 0.306291
0.104070 0.330921 0.305032
0.099187 0.317788 0.308430
0.092472 0.298061 0.305507
0.089649 0.291670 0.313583
0.083223 0.272372 0.309225
0.078732 0.259672 0.310291
0.074337 0.247091 0.310839
0.068456 0.228763 0.304253
0.065852 0.222359 0.310412
0.061771 0.210241 0.309456
0.057803 0.198311 0.308019
0.055269 0.191790 0.313333
0.050223 0.175076 0.303742
0.047795 0.168647 0.308418
0.044124 0.156920 0.304446
0.041753 0.150460 0.308621
0.038405 0.139615 0.304755
0.036091 0.133135 0.308454
0.032944 0.122676 0.303894
0.030696 0.116205 0.307127
0.028448 0.109648 0.310181
0.026203 0.103008 0.313052
0.023412 0.093233 0.307292
0.021246 0.086655 0.309715
0.019088 0.080010 0.311957
0.016939 0.073303 0.314015
0.014800 0.066539 0.315888
0.012471 0.057744 0.308798
0.010562 0.052858 0.319075
0.008398 0.044416 0.311519
0.006387 0.039006 0.321509
0.004326 0.032027 0.322442
0.002286 0.025019 0.323184
0.000267 0.017988 0.323735
-0.001468 0.010529 0.315108
-0.003699 0.003873 0.324263
-0.005644 -0.003201 0.324239
-0.007562 -0.010278 0.324023
-0.008943 -0.016853 0.314644
-0.011311 -0.024427 0.323017
-0.013139 -0.031487 0.322227
-0.014935 -0.038533 0.321247
-0.016697 -0.045558 0.320077
-0.018425 -0.052557 0.318718
-0.020969 -0.061386 0.325936
-0.022677 -0.068544 0.324146
-0.024347 -0.075660 0.322165
-0.026985 -0.085256 0.328572
-0.028623 -0.092494 0.326138
-0.030218 -0.099673 0.323511
-0.032922 -0.109967 0.329034
-0.035805 -0.120996 0.335103
-0.037358 -0.128418 0.331704
-0.038863 -0.135757 0.328108
-0.041643 -0.147024 0.332262
-0.044453 -0.158606 0.335998
-0.044476 -0.161647 0.323878
-0.048697 -0.178038 0.334575
-0.051528 -0.190284 0.337107
-0.055880 -0.207795 0.346503
-0.057215 -0.215543 0.340770
-0.061636 -0.233902 0.348921
-0.062902 -0.241721 0.342489
-0.065734 -0.255114 0.342594
-0.070208 -0.274597 0.348764
-0.073030 -0.288503 0.347665
-0.075825 -0.302551 0.346028
-0.078589 -0.316721 0.343846
-0.084813 -0.344122 0.352923
-0.089500 -0.366250 0.355634
-0.092195 -0.381139 0.351205
-0.094836 -0.396062 0.346196
-0.101041 -0.425287 0.350930
-0.107232 -0.455040 0.354298
-0.113395 -0.485270 0.356276
-0.121360 -0.523458 0.361414
-0.129491 -0.563109 0.365196
-0.137360 -0.602465 0.366605
-0.147017 -0.650165 0.370071
-0.156796 -0.699360 0.371613
-0.169995 -0.764341 0.377392
-0.183068 -0.830119 0.379909
-0.199924 -0.913982 0.385637
-0.218240 -1.006136 0.389642
-0.242100 -1.125290 0.397147
-0.269354 -1.262493 0.403326
-0.305447 -1.443490 0.413314
-0.414765 -1.992801 0.441466
-0.494450 -2.396090 0.455491
-0.543874 -2.661918 0.428098
-0.552363 -2.733359 0.364047
-0.560481 -2.804313 0.296588
-0.582105 -2.944142 0.230063
-0.558848 -2.859936 0.148231
-0.475228 8.816437 0.214284
-0.215640 3.507088 0.482114
-0.166919 2.645462 0.445328
-0.138204 2.134725 0.425483
-0.116850 1.761193 0.406747
-0.101632 1.495371 0.393215
-0.090651 1.302162 0.384435
-0.082919 1.162347 0.380771
-0.076015 1.040849 0.375480
-0.070123 0.938432 0.370291
-0.065193 0.852951 0.365962
-0.061476 0.785957 0.364542
-0.058252 0.727898 0.363450
-0.054740 0.669584 0.359126
-0.051115 0.612937 0.352428
-0.049602 0.580861 0.355704
-0.047114 0.540406 0.352584
-0.043800 0.493731 0.343438
-0.042725 0.470574 0.346611
-0.040770 0.440196 0.343741
-0.039530 0.417591 0.344732
-0.037407 0.388119 0.339325
-0.036834 0.373219 0.343814
-0.035297 0.350761 0.341292
-0.033790 0.329452 0.338469
-0.033050 0.315070 0.340887
-0.032262 0.300798 0.342758
-0.030605 0.280463 0.337607
-0.028906 0.260619 0.331603
-0.027990 0.247138 0.331566
-0.027037 0.233846 0.331024
-0.026860 0.226235 0.337084
-0.025030 0.207900 0.328464
-0.023981 0.195278 0.326468
-0.022906 0.182911 0.324009
-0.022592 0.175514 0.328735
-0.021464 0.163502 0.325508
-0.020318 0.151786 0.321851
-0.019073 0.139929 0.316889
-0.018640 0.132744 0.320489
-0.017446 0.121812 0.315710
-0.016955 0.114671 0.318835
-0.016429 0.107453 0.321772
-0.015868 0.100163 0.324519
-0.014614 0.090026 0.318540
-0.014002 0.082833 0.320830
-0.012738 0.073254 0.314259
-0.012680 0.068288 0.324840
-0.011393 0.059072 0.317773
-0.010674 0.051922 0.319250
-0.009923 0.044738 0.320538
-0.009142 0.037527 0.321636
-0.007853 0.029345 0.313608
-0.007490 0.023040 0.323263
-0.006620 0.015775 0.323791
-0.005721 0.008501 0.324126
-0.004795 0.001226 0.324270
-0.003507 -0.005826 0.315231
-0.002558 -0.012858 0.314999
-0.001583 -0.019879 0.314582
-0.000585 -0.026882 0.313979
0.000438 -0.033864 0.313191
0.001483 -0.040820 0.312220
0.002418 -0.049360 0.319917
0.003543 -0.056477 0.318535
0.004689 -0.063551 0.316965
0.005855 -0.070578 0.315208
0.007040 -0.077554 0.313265
0.008299 -0.087219 0.319708
0.009559 -0.094296 0.317324
0.010836 -0.101305 0.314753
0.012128 -0.108240 0.311997
0.013650 -0.118714 0.317296
0.014755 -0.121872 0.305936
0.016385 -0.132595 0.310674
0.018110 -0.143637 0.315019
0.019547 -0.150541 0.311139
0.021889 -0.167140 0.323328
0.023433 -0.174238 0.318823
0.025494 -0.186245 0.321574
0.027092 -0.193280 0.316561
0.029291 -0.205585 0.318531
0.031579 -0.218112 0.320029
0.033953 -0.230845 0.321044
0.036413 -0.243766 0.321566
0.038957 -0.256858 0.321586
0.041582 -0.270104 0.321093
0.044286 -0.283486 0.320079
0.047964 -0.303580 0.324597
0.049923 -0.310586 0.316460
0.052850 -0.324266 0.313839
0.056869 -0.345043 0.316190
0.061036 -0.366137 0.317610
0.064241 -0.380209 0.312945
0.068777 -0.402533 0.313204
0.072138 -0.416708 0.307173
0.078000 -0.446172 0.309654
0.082798 -0.468227 0.306393
0.090319 -0.506167 0.310393
0.096758 -0.536592 0.308615
0.104903 -0.576211 0.309507
0.113137 -0.615280 0.308064
0.121595 -0.654613 0.304705
0.131749 -0.702474 0.302468
0.145370 -0.768346 0.303819
0.157654 -0.825255 0.298916
0.171810 -0.890889 0.293515
0.189700 -0.974843 0.289311
0.212944 -1.084976 0.286546
0.238238 -1.203182 0.279549
0.271079 -1.357426 0.272387
0.316912 -1.574092 0.265857
0.370567 -1.825130 0.251744
0.450541 -2.201156 0.235152
0.568048 -2.753062 0.209081
0.686246 -3.296439 0.153331
0.682636 -3.243761 0.064854
-1.019091 2.251338 0.100111
-1.022972 2.247045 0.164758
-1.033681 2.257495 0.230668
-1.047498 2.274409 0.298296
-1.155829 2.493633 0.395946
-1.073521 2.303838 0.437348
-1.096584 2.339396 0.513360
-1.134415 2.405509 0.599387
-1.182720 2.492630 0.695898
-0.971788 2.038757 0.640541
-0.788180 1.646639 0.577752
-0.672456 1.398717 0.542271
-0.579435 1.200075 0.510726
-0.509461 1.050573 0.487606
-0.454976 0.934082 0.470236
-0.407686 0.833376 0.453328
-0.371612 0.756212 0.442449
-0.339766 0.688314 0.431923
-0.315308 0.635751 0.426295
-0.290599 0.583293 0.417420
-0.270001 0.539431 0.410983
-0.253047 0.503111 0.407154
-0.236215 0.467436 0.401493
-0.219163 0.431748 0.393447
-0.206028 0.403892 0.389646
-0.189718 0.370389 0.378850
-0.180151 0.349865 0.377989
-0.170650 0.329688 0.376182
-0.161230 0.309887 0.373445
-0.151568 0.289868 0.369093
-0.142370 0.270922 0.364536
-0.136253 0.257722 0.365771
-0.127268 0.239561 0.359650
-0.121257 0.226863 0.359670
-0.112540 0.209578 0.352059
-0.109348 0.202062 0.358176
-0.103467 0.189990 0.356685
-0.097646 0.178154 0.354711
-0.091895 0.166570 0.352267
-0.083872 0.151368 0.341592
-0.078368 0.140513 0.338127
-0.072960 0.129950 0.334236
-0.069744 0.123002 0.338034
-0.064461 0.112863 0.333428
-0.059083 0.102723 0.327509
-0.054052 0.093263 0.322126
-0.050867 0.086672 0.324849
-0.047626 0.080032 0.327379
-0.042815 0.071226 0.321102
-0.039568 0.064707 0.323179
-0.036273 0.058154 0.325065
-0.031724 0.050063 0.317968
-0.028444 0.043664 0.319421
-0.025123 0.037245 0.320685
-0.021764 0.030812 0.321760
-0.018368 0.024370 0.322646
-0.014272 0.017447 0.314377
-0.011478 0.011473 0.323843
-0.007987 0.005028 0.324155
-0.004471 -0.001409 0.324275
-0.000714 -0.007480 0.315212
0.002735 -0.013681 0.314957
0.006202 -0.019861 0.314516
0.009686 -0.026016 0.313891
0.013183 -0.032141 0.313080
0.016692 -0.038233 0.312085
0.020209 -0.044288 0.310907
0.023733 -0.050300 0.309547
0.027261 -0.056266 0.308004
0.030790 -0.062182 0.306281
0.035267 -0.070413 0.313009
0.038907 -0.076409 0.310859
0.042541 -0.082342 0.308527
0.046166 -0.088206 0.306013
0.049778 -0.093998 0.303320
0.054908 -0.103026 0.308677
0.058603 -0.108843 0.305533
0.062277 -0.114574 0.302210
0.067804 -0.124063 0.306627
0.071540 -0.129782 0.302839
0.075247 -0.135401 0.298874
0.078921 -0.140915 0.294734
0.084881 -0.150843 0.297850
0.091290 -0.161499 0.301337
0.095074 -0.167009 0.296396
0.101456 -0.177384 0.298288
0.105248 -0.182787 0.292854
0.111838 -0.193339 0.293952
0.118574 -0.204035 0.294565
0.125448 -0.214859 0.294683
0.132452 -0.225796 0.294298
0.142826 -0.242658 0.299438
0.150157 -0.253898 0.297845
0.157590 -0.265198 0.295721
0.165113 -0.276542 0.293059
0.169103 -0.281609 0.284546
0.180396 -0.299297 0.286101
0.188136 -0.310675 0.281794
0.199793 -0.328644 0.281653
0.211650 -0.346761 0.280548
0.220111 -0.358953 0.274631
0.232243 -0.377197 0.271748
0.244520 -0.395499 0.267870
0.256922 -0.413828 0.262991
0.278034 -0.446359 0.264035
0.290752 -0.464772 0.256695
0.312379 -0.497561 0.254385
0.330286 -0.523982 0.247664
0.356893 -0.564206 0.244285
0.383791 -0.604503 0.238513
0.411444 -0.645617 0.230570
0.443458 -0.693276 0.221847
0.485138 -0.755785 0.213568
0.522898 -0.811520 0.200198
0.574681 -0.888717 0.186880
0.641762 -0.989055 0.171802
0.728618 -1.119157 0.153424
0.840295 -1.286401 0.129421
0.997097 -1.521498 0.097342
1.208582 -1.838138 0.050811
-4.085959 4.005728 0.191988
-4.058213 3.961503 0.339326
-4.033380 3.920287 0.484733
-3.882578 3.674381 1.325038
-2.743093 2.586719 1.052706
-2.608433 2.448754 1.102245
-1.924645 1.800701 0.899335
-1.530082 1.426592 0.784034
-0.846664 0.789613 0.488203
-0.753943 0.700706 0.470193
-0.851112 0.785971 0.559529
-0.794026 0.730188 0.558277
-0.707604 0.648381 0.532822
-0.634809 0.579595 0.510584
-0.579878 0.527434 0.496457
-0.526361 0.477021 0.479234
-0.490677 0.442864 0.473189
-0.449264 0.403982 0.459217
-0.414667 0.371439 0.448459
-0.386059 0.344416 0.440993
-0.352034 0.312970 0.425473
-0.324523 0.287440 0.414309
-0.307767 0.271347 0.413492
-0.286219 0.251335 0.405532
-0.265113 0.231896 0.396299
-0.249241 0.217038 0.392348
-0.233131 0.202126 0.386768
-0.217852 0.188050 0.381048
-0.207290 0.177978 0.381473
-0.196822 0.168068 0.381370
-0.182331 0.155013 0.373475
-0.168231 0.142418 0.364801
-0.158401 0.133342 0.362915
-0.148724 0.124475 0.360555
-0.139213 0.115825 0.357731
-0.129879 0.107403 0.354457
-0.120736 0.099217 0.350746
-0.111795 0.091275 0.346611
-0.103068 0.083584 0.342066
-0.094565 0.076153 0.337126
-0.088946 0.070859 0.340200
-0.080487 0.063624 0.333652
-0.074899 0.058442 0.336235
-0.067085 0.051825 0.329995
-0.061533 0.046757 0.332112
-0.054102 0.040568 0.325287
-0.048608 0.035631 0.326956
-0.041589 0.029888 0.319589
-0.036173 0.025096 0.320830
-0.030717 0.020306 0.321882
-0.025225 0.015519 0.322743
-0.019699 0.010741 0.323413
-0.014144 0.005973 0.323892
-0.008563 0.001220 0.324180
-0.002730 -0.003241 0.315283
0.002709 -0.007804 0.315190
0.008161 -0.012343 0.314912
0.013623 -0.016856 0.314448
0.019090 -0.021339 0.313799
0.024559 -0.025789 0.312966
0.030027 -0.030204 0.311948
0.035488 -0.034579 0.310747
0.040940 -0.038913 0.309364
0.046378 -0.043203 0.307799
0.051798 -0.047444 0.306053
0.057198 -0.051635 0.304128
0.062572 -0.055773 0.302025
0.067917 -0.059855 0.299745
0.075524 -0.066171 0.305686
0.080976 -0.070264 0.302971
0.086385 -0.074292 0.300079
0.091749 -0.078251 0.297011
0.097063 -0.082139 0.293770
0.102324 -0.085954 0.290359
0.110852 -0.092742 0.294566
0.116160 -0.096520 0.290699
0.121401 -0.100214 0.286663
0.130387 -0.107218 0.289872
0.135641 -0.110849 0.285372
0.144946 -0.118000 0.287839
0.150189 -0.121547 0.282866
0.146469 -0.117359 0.264054
0.142060 -0.112676 0.245703
0.146436 -0.115537 0.240890
0.150722 -0.118304 0.235941
0.149902 -0.116783 0.224672
0.153860 -0.119273 0.219637
0.157722 -0.121668 0.214483
0.161485 -0.123967 0.209211
0.159608 -0.121653 0.198354
0.163040 -0.123683 0.193049
0.166369 -0.125618 0.187642
0.169590 -0.127455 0.182137
0.172702 -0.129194 0.176538
0.181812 -0.135677 0.175343
0.178587 -0.132375 0.165072
0.181356 -0.133815 0.159212
0.190414 -0.140152 0.157144
0.193034 -0.141434 0.150917
0.188943 -0.137528 0.141179
0.191225 -0.138562 0.135029
0.200122 -0.144645 0.131817
0.195406 -0.140321 0.122549
0.204185 -0.146254 0.118777
0.212957 -0.152130 0.114503
0.242718 -0.173684 0.116016
0.273547 -0.195833 0.115855
0.303821 -0.217364 0.113569
0.348557 -0.249385 0.112191
0.379175 -0.270726 0.105634
0.235690 -0.164394 0.074581
0.229358 -0.159002 0.066347
0.230090 -0.158786 0.059036
0.223372 -0.153191 0.051482
0.209161 -0.142259 0.044398
-0.796874 0.346353 0.046995
-0.805561 0.348009 0.069994
-0.846832 0.363315 0.095433
-0.844774 0.358112 0.143574
-0.851115 0.358543 0.168751
-0.848606 0.355295 0.192876
-0.841828 0.348081 0.240805
-0.837562 0.344123 0.264575
-0.832715 0.339937 0.288194
-0.827288 0.335528 0.311645
-0.805374 0.324627 0.329305
-0.870833 0.348033 0.379510
-2.083616 0.817063 0.910604
-1.665984 0.650024 0.790922
-1.401676 0.544027 0.718796
-1.187211 0.458443 0.655740
-1.029808 0.395586 0.610338
-0.920450 0.351596 0.582911
-0.819488 0.311334 0.553762
-0.742028 0.280299 0.533498
-0.673890 0.253106 0.514715
-0.621019 0.231828 0.502689
-0.568372 0.210930 0.487435
-0.517578 0.190995 0.470165
-0.474540 0.174090 0.456047
-0.444676 0.162034 0.450894
-0.409743 0.148398 0.438983
-0.375654 0.135260 0.425407
-0.342470 0.122638 0.410206
-0.327834 0.116422 0.413054
-0.307567 0.108419 0.408625
-0.281557 0.098664 0.395700
-0.267712 0.092994 0.396377
-0.248800 0.085790 0.389366
-0.235426 0.080437 0.388840
-0.222230 0.075212 0.387802
-0.204549 0.068706 0.378705
-0.191941 0.063832 0.376552
-0.175254 0.057846 0.366124
-0.163308 0.053341 0.362923
-0.147699 0.047895 0.351255
-0.140215 0.044784 0.355210
-0.129095 0.040740 0.350725
-0.121606 0.037700 0.354160
-0.107776 0.033131 0.340570
-0.100519 0.030254 0.343416
-0.090174 0.026713 0.336544
-0.080502 0.023416 0.330270
-0.073475 0.020726 0.332362
-0.064318 0.017689 0.325506
-0.057394 0.015100 0.327151
-0.048783 0.012328 0.319755
-0.041988 0.009847 0.320972
-0.036354 0.007418 0.330919
-0.028290 0.004933 0.322837
-0.021398 0.002504 0.323484
-0.014483 0.000097 0.323939
-0.007550 -0.002288 0.324203
-0.000517 -0.004298 0.315282
0.006213 -0.006557 0.315166
0.012946 -0.008789 0.314864
0.019094 -0.010419 0.305414
0.026404 -0.013166 0.313705
0.032087 -0.014591 0.303937
0.038564 -0.016631 0.302931
0.045021 -0.018637 0.301748
0.051454 -0.020609 0.300388
0.057858 -0.022545 0.298853
0.064229 -0.024444 0.297144
0.070563 -0.026306 0.295261
0.079427 -0.029310 0.301750
0.085887 -0.031154 0.299448
0.092295 -0.032954 0.296972
0.098646 -0.034711 0.294322
0.104935 -0.036423 0.291502
0.114785 -0.039564 0.296615
0.121143 -0.041237 0.293353
0.127423 -0.042861 0.289920
0.133622 -0.044436 0.286319
0.139735 -0.045959 0.282552
0.150381 -0.049159 0.286147
0.156500 -0.050624 0.281925
0.162516 -0.052035 0.277540
0.168426 -0.053390 0.272995
0.179594 -0.056590 0.275263
0.185456 -0.057873 0.270257
0.203269 -0.063268 0.279161
0.209241 -0.064507 0.273510
0.215073 -0.065683 0.267702
0.226979 -0.068872 0.267909
0.239054 -0.072057 0.267620
0.244752 -0.073097 0.261010
0.263639 -0.078391 0.265522
0.269294 -0.079344 0.258248
0.288689 -0.084640 0.261350
0.301345 -0.087720 0.258471
0.314062 -0.090761 0.255056
0.326823 -0.093760 0.251101
0.347080 -0.098990 0.251071
0.359987 -0.101900 0.245818
0.372874 -0.104750 0.240013
0.393526 -0.109849 0.237497
0.406417 -0.112572 0.230367
0.419225 -0.115217 0.222680
0.440913 -0.120374 0.217982
0.461755 -0.125191 0.211905
0.490848 -0.132254 0.207573
0.520053 -0.139217 0.201783
0.524167 -0.139063 0.187641
0.519477 -0.136476 0.171332
0.539811 -0.140768 0.160909
0.654948 -0.170668 0.167338
0.701161 -0.181515 0.156457
0.747291 -0.192135 0.143172
0.802865 -0.205045 0.128492
0.865945 -0.219675 0.111489
0.947105 -0.238716 0.092076
1.088904 -0.272981 0.069761
-0.931822 0.009785 0.050225
-0.931368 0.007788 0.074609
-0.930272 0.005780 0.098973
-0.919567 0.003791 0.122538
-0.950878 -0.000483 0.175595
-0.928368 -0.002381 0.197347
-0.924040 -0.004412 0.221588
-0.928842 -0.006573 0.247846
-0.940657 -0.008891 0.276390
-0.942919 -0.011105 0.303308
-0.935794 -0.013155 0.327894
-2.293185 -0.058243 0.940847
-1.826653 -0.049526 0.814234
-1.525299 -0.044055 0.734838
-1.303332 -0.039969 0.676025
-1.125598 -0.036499 0.626802
-0.998730 -0.034240 0.594813
-0.882159 -0.031808 0.561172
-0.807158 -0.030718 0.546111
-0.725255 -0.028925 0.522012
-0.653422 -0.027239 0.499714
-0.596980 -0.026028 0.484083
-0.556824 -0.025467 0.477486
-0.510498 -0.024335 0.463402
-0.471364 -0.023419 0.452439
-0.440556 -0.022856 0.446466
-0.403924 -0.021728 0.432942
-0.374638 -0.020940 0.424193
-0.346104 -0.020052 0.414190
-0.318369 -0.019070 0.402968
-0.296621 -0.018434 0.396674
-0.281659 -0.018278 0.397302
-0.261456 -0.017568 0.390225
-0.247055 -0.017303 0.389652
-0.227836 -0.016479 0.381123
-0.214080 -0.016115 0.379409
-0.195941 -0.015191 0.369514
-0.182908 -0.014739 0.366725
-0.174384 -0.014766 0.371413
-0.157714 -0.013721 0.359800
-0.145583 -0.013159 0.355690
-0.133780 -0.012565 0.351166
-0.125687 -0.012454 0.354574
-0.117509 -0.012309 0.357769
-0.103400 -0.011122 0.343757
-0.092514 -0.010366 0.336849
-0.082341 -0.009646 0.330542
-0.074815 -0.009392 0.332610
-0.065219 -0.008633 0.325722
-0.057828 -0.008327 0.327343
-0.048842 -0.007536 0.319917
-0.042936 -0.007624 0.330002
-0.034354 -0.006797 0.322115
-0.027075 -0.006384 0.322928
-0.019779 -0.005943 0.323551
-0.012084 -0.005086 0.314999
-0.005004 -0.004605 0.315231
0.002077 -0.004096 0.315277
0.009156 -0.003562 0.315138
0.016226 -0.003001 0.314813
0.022493 -0.002117 0.305343
0.029298 -0.001526 0.304671
0.036082 -0.000911 0.303821
0.042838 -0.000273 0.302792
0.049564 0.000388 0.301587
0.056253 0.001071 0.300206
0.062901 0.001776 0.298649
0.069504 0.002502 0.296918
0.078691 0.003134 0.303619
0.085413 0.003926 0.301472
0.092074 0.004738 0.299148
0.098670 0.005569 0.296650
0.105196 0.006418 0.293979
0.111646 0.007284 0.291137
0.121960 0.008220 0.296217
0.128457 0.009148 0.292933
0.130507 0.009978 0.281605
0.141176 0.011049 0.285857
0.147387 0.012020 0.282070
0.153496 0.013003 0.278119
0.164646 0.014236 0.281386
0.176063 0.015545 0.284221
0.182206 0.016624 0.279514
0.182514 0.017375 0.267695
0.199990 0.019177 0.276419
0.212644 0.020760 0.278463
0.218609 0.021937 0.272793
0.230815 0.023589 0.273281
0.236632 0.024807 0.267132
0.248993 0.026564 0.266802
0.261489 0.028389 0.265967
0.274101 0.030280 0.264621
0.286810 0.032235 0.262755
0.299598 0.034254 0.260364
0.312446 0.036332 0.257443
0.325335 0.038470 0.253985
0.338245 0.040664 0.249987
0.351158 0.042911 0.245445
0.371949 0.046046 0.244593
0.384912 0.048425 0.238745
0.397813 0.050849 0.232343
0.410632 0.053315 0.225385
0.440836 0.057851 0.225017
0.461970 0.061447 0.219651
0.483103 0.065133 0.213283
0.512712 0.069955 0.208629
0.516636 0.071672 0.195031
0.520202 0.073350 0.181330
0.514716 0.073850 0.165496
0.526252 0.076576 0.153656
0.563855 0.082868 0.146013
0.637618 0.094291 0.141977
0.701635 0.104675 0.132862
0.747797 0.112801 0.118658
0.865711 0.131465 0.107279
1.001184 0.153210 0.090514
1.145103 0.176793 0.066780
-1.284809 -0.516717 0.057538
-1.274619 -0.515747 0.093452
-4.247250 -1.745911 0.328439
-1.226862 -0.502367 0.161371
-1.147346 -0.472289 0.186688
-1.126045 -0.466306 0.216590
-1.095947 -0.456518 0.243951
-1.081611 -0.453314 0.273227
-1.074707 -0.453249 0.303836
-1.075083 -0.456318 0.336450
-1.066647 -0.455602 0.366910
-1.065367 -0.458000 0.399785
-1.055405 -0.456615 0.430006
-1.044722 -0.454896 0.459962
-1.056272 -0.463058 0.499542
-1.059022 -0.467390 0.536602
-1.113757 -0.495241 0.600760
-1.031781 -0.461386 0.596480
-0.908231 -0.408072 0.563473
-0.807944 -0.364750 0.536462
-0.730935 -0.331633 0.517839
-0.663252 -0.302419 0.500499
-0.603864 -0.276705 0.484624
-0.551763 -0.254088 0.470289
-0.514676 -0.238319 0.464613
-0.471939 -0.219617 0.451593
-0.435840 -0.203866 0.441529
-0.401314 -0.188659 0.430357
-0.367707 -0.173684 0.417499
-0.346672 -0.164728 0.415504
-0.314752 -0.150199 0.399738
-0.294861 -0.141521 0.395574
-0.280155 -0.135358 0.396520
-0.261065 -0.126859 0.390749
-0.242488 -0.118498 0.384137
-0.229246 -0.112806 0.383893
-0.216212 -0.107146 0.383133
-0.198962 -0.099147 0.374408
-0.182317 -0.091340 0.364931
-0.170366 -0.085972 0.362442
-0.158685 -0.080671 0.359492
-0.147288 -0.075445 0.356095
-0.132695 -0.068307 0.344212
-0.125391 -0.065251 0.348012
-0.118011 -0.062127 0.351604
-0.107666 -0.057193 0.346644
-0.097660 -0.052370 0.341300
-0.085238 -0.045924 0.326138
-0.078452 -0.042921 0.328572
-0.069545 -0.038482 0.322165
-0.064754 -0.036761 0.332855
-0.056190 -0.032414 0.325935
-0.049469 -0.029313 0.327532
-0.042723 -0.026170 0.328935
-0.034930 -0.022086 0.321247
-0.028363 -0.018965 0.322227
-0.021787 -0.015810 0.323017
-0.015207 -0.012621 0.323615
-0.008444 -0.008910 0.315038
-0.002081 -0.005768 0.315247
0.004273 -0.002601 0.315270
0.010614 0.000590 0.315108
0.016937 0.003801 0.314760
0.022367 0.006992 0.305269
0.029511 0.010276 0.313508
0.035754 0.013535 0.312606
0.041962 0.016806 0.311519
0.048130 0.020086 0.310250
0.054254 0.023373 0.308798
0.060330 0.026665 0.307165
0.064049 0.029157 0.296689
0.074825 0.034161 0.311957
0.078230 0.036541 0.301191
0.084073 0.039826 0.298845
0.092934 0.044340 0.304689
0.095550 0.046369 0.293633
0.104639 0.051078 0.298949
0.110370 0.054424 0.295816
0.116015 0.057752 0.292511
0.125578 0.062836 0.296896
0.127030 0.064344 0.285393
0.136749 0.069588 0.289205
0.146707 0.075013 0.292600
0.152196 0.078417 0.288204
0.157570 0.081786 0.283641
0.162826 0.085117 0.278914
0.178872 0.093675 0.288661
0.184200 0.097128 0.283294
0.172378 0.092162 0.257159
0.171370 0.092431 0.245510
0.175704 0.095343 0.240346
0.174021 0.095232 0.228923
0.177961 0.097950 0.223668
0.181771 0.100614 0.218291
0.179181 0.099984 0.207205
0.182604 0.102449 0.201779
0.179396 0.101450 0.191033
0.182443 0.103715 0.185589
0.185358 0.105920 0.180048
0.194949 0.111704 0.179036
0.190783 0.110142 0.168692
0.193291 0.112154 0.162884
0.195659 0.114099 0.156995
0.205046 0.119898 0.154818
0.207207 0.121766 0.148563
0.216523 0.127608 0.145595
0.300309 0.175033 0.173847
0.384429 0.223167 0.196783
0.440435 0.255961 0.204243
0.503555 0.293125 0.210591
0.514052 0.300665 0.197526
0.593617 0.347843 0.202218
0.634421 0.373158 0.193061
0.675940 0.399120 0.181666
0.747168 0.442615 0.172925
0.819094 0.486929 0.160023
0.889860 0.530973 0.142687
0.984228 0.589370 0.122975
1.116670 0.670920 0.099412
1.279209 0.771192 0.068334
-2.443419 -2.461879 0.088502
-2.429477 -2.458325 0.178862
-2.420869 -2.460209 0.269256
-2.404315 -2.454000 0.358675
-2.398607 -2.458933 0.449516
-2.384978 -2.455764 0.539259
-2.369704 -2.450901 0.628662
-2.359589 -2.451423 0.719610
-2.334284 -2.436091 0.806204
-2.296145 -2.407169 0.887588
-1.795768 -1.889266 0.778184
-1.403747 -1.481686 0.677101
-1.136557 -1.203540 0.605452
-0.954977 -1.014595 0.557684
-0.822997 -0.877314 0.523662
-0.772155 -0.826600 0.529743
-0.689337 -0.740614 0.510255
-0.607584 -0.654959 0.484445
-0.554470 -0.599956 0.473721
-0.503022 -0.546257 0.459810
-0.457901 -0.499055 0.446923
-0.418339 -0.457592 0.435190
-0.385250 -0.422981 0.426304
-0.357813 -0.394404 0.420387
-0.330464 -0.365637 0.412076
-0.308973 -0.343269 0.408146
-0.278873 -0.310767 0.391359
-0.263027 -0.294402 0.390308
-0.243179 -0.273210 0.382208
-0.223439 -0.251909 0.372142
-0.221480 -0.251363 0.387995
-0.202492 -0.230606 0.376100
-0.188408 -0.215474 0.370494
-0.178409 -0.205101 0.370957
-0.165029 -0.190506 0.363833
-0.155498 -0.180457 0.363112
-0.142884 -0.166481 0.354548
-0.133874 -0.156824 0.352703
-0.125070 -0.147317 0.350386
-0.116484 -0.137973 0.347608
-0.108123 -0.128804 0.344381
-0.097441 -0.116485 0.332760
-0.094520 -0.114228 0.344698
-0.084479 -0.102468 0.332139
-0.079214 -0.096997 0.335513
-0.071736 -0.088419 0.329408
-0.066570 -0.082963 0.332287
-0.059722 -0.075035 0.326453
-0.054658 -0.069599 0.328863
-0.048227 -0.062032 0.322423
-0.043283 -0.056640 0.324380
-0.038326 -0.051194 0.326146
-0.032477 -0.044138 0.318898
-0.027663 -0.038765 0.320233
-0.022848 -0.033350 0.321380
-0.018035 -0.027896 0.322336
-0.013228 -0.022408 0.323102
-0.008320 -0.016207 0.314703
-0.003688 -0.010838 0.315074
0.001125 -0.005770 0.324252
0.005525 -0.000036 0.315260
0.010100 0.005389 0.315074
0.013997 0.010608 0.305730
0.019173 0.016272 0.314147
0.023665 0.021721 0.313406
0.028121 0.027170 0.312480
0.032541 0.032615 0.311371
0.036920 0.038053 0.310078
0.039717 0.042175 0.299833
0.045546 0.048890 0.306948
0.051609 0.055945 0.313768
0.053975 0.059650 0.303099
0.060209 0.067012 0.309423
0.062186 0.070304 0.298540
0.068571 0.077952 0.304351
0.070156 0.080819 0.293285
0.076674 0.088735 0.298567
0.080622 0.094057 0.295412
0.087378 0.102387 0.300044
0.091301 0.107771 0.296435
0.098267 0.116488 0.300382
0.102144 0.121910 0.296307
0.109290 0.130982 0.299536
0.113102 0.136419 0.294986
0.120793 0.146260 0.298269
0.124532 0.151703 0.293219
0.135741 0.165742 0.301825
0.139473 0.171297 0.296132
0.143092 0.176746 0.290266
0.154753 0.191654 0.297112
0.158322 0.197162 0.290580
0.170282 0.212670 0.296086
0.182454 0.228588 0.300727
0.185967 0.234237 0.292987
0.193838 0.245191 0.290642
0.206289 0.261817 0.293137
0.214227 0.273065 0.289519
0.226856 0.290188 0.290342
0.239578 0.307580 0.290213
0.247528 0.319178 0.284523
0.260854 0.337604 0.283144
0.268718 0.349306 0.276084
0.281489 0.367313 0.272423
0.299294 0.391884 0.271524
0.322239 0.423253 0.272733
0.335016 0.441822 0.265395
0.363772 0.481205 0.266706
0.381636 0.506789 0.259510
0.409859 0.546115 0.256156
0.443303 0.592639 0.252846
0.482561 0.647241 0.249129
0.515871 0.694444 0.239824
0.560195 0.756715 0.231326
0.614349 0.832677 0.221824
0.679460 0.924028 0.210276
0.754844 1.030047 0.195076
0.813177 1.113870 0.170622
0.839590 1.154923 0.137479
0.848854 1.172829 0.100782
1.070435 1.482709 0.067696
-1.186721 -2.908702 0.094631
-1.176215 -2.900687 0.176439
-1.171594 -2.907356 0.258913
-1.166466 -2.912938 0.341803
-1.156811 -2.907255 0.423806
-1.149609 -2.907856 0.506865
-1.125075 -2.864191 0.582156
-1.000820 -2.562895 0.599780
-0.814976 -2.097740 0.560327
-0.657658 -1.700903 0.513036
-0.553520 -1.438646 0.483848
-0.472495 -1.234052 0.458817
-0.411530 -1.080175 0.440436
-0.363715 -0.959502 0.426267
-0.323117 -0.856669 0.412696
-0.294551 -0.785207 0.407531
-0.266945 -0.715359 0.399033
-0.242457 -0.653128 0.390433
-0.224256 -0.607551 0.387486
-0.203867 -0.555124 0.377806
-0.189180 -0.518101 0.374679
-0.174584 -0.480772 0.369173
-0.163102 -0.451871 0.367388
-0.151906 -0.423354 0.364209
-0.141011 -0.395269 0.359659
-0.130433 -0.367665 0.353764
-0.122365 -0.347143 0.352322
-0.114271 -0.326207 0.349285
-0.108679 -0.312601 0.352098
-0.101204 -0.292938 0.348062
-0.095865 -0.279637 0.349605
-0.090626 -0.266442 0.350612
-0.083740 -0.247719 0.344310
-0.078792 -0.234957 0.344116
-0.073962 -0.222357 0.343417
-0.069254 -0.209936 0.342222
-0.064673 -0.197711 0.340543
-0.060223 -0.185698 0.338390
-0.054607 -0.169303 0.328155
-0.051730 -0.162366 0.332711
-0.047696 -0.151077 0.329209
-0.043807 -0.140059 0.325283
-0.039956 -0.128898 0.320050
-0.036375 -0.118484 0.315306
-0.033780 -0.111823 0.318454
-0.031184 -0.105078 0.321415
-0.028589 -0.098252 0.324186
-0.025401 -0.088528 0.318240
-0.022892 -0.081766 0.320554
-0.020390 -0.074941 0.322678
-0.017896 -0.068057 0.324611
-0.015128 -0.059149 0.317575
-0.012735 -0.052378 0.319075
-0.010355 -0.045563 0.320387
-0.007991 -0.038709 0.321509
-0.005644 -0.031821 0.322442
-0.003411 -0.024037 0.314227
-0.001009 -0.017961 0.323735
0.001276 -0.010999 0.324095
0.003221 -0.003828 0.315270
0.005384 0.002934 0.315247
0.007521 0.009702 0.315038
0.009631 0.016469 0.314644
0.011711 0.023233 0.314064
0.013761 0.029988 0.313300
0.015779 0.036729 0.312351
0.017763 0.043451 0.311219
0.019714 0.050151 0.309904
0.022556 0.058646 0.317171
0.024496 0.065506 0.315437
0.026397 0.072328 0.313518
0.028257 0.079106 0.311414
0.031245 0.088535 0.317633
0.033078 0.095428 0.315085
0.036148 0.105389 0.320693
0.037944 0.112370 0.317685
0.039691 0.119280 0.314490
0.041388 0.126114 0.311110
0.044527 0.136826 0.315491
0.047881 0.148317 0.320336
0.049523 0.155316 0.316165
0.051108 0.162213 0.311807
0.054311 0.173753 0.314727
0.057540 0.185562 0.317198
0.059033 0.192501 0.312022
0.062258 0.204622 0.313705
0.065495 0.216970 0.314912
0.070603 0.235194 0.322371
0.073877 0.248123 0.322434
0.077143 0.261227 0.321985
0.080396 0.274490 0.321016
0.083630 0.287894 0.319520
0.086840 0.301421 0.317487
0.092061 0.321690 0.320639
0.095228 0.335556 0.317332
0.100439 0.356412 0.318823
0.103535 0.370524 0.314205
0.108936 0.392653 0.314538
0.114075 0.414254 0.313327
0.119176 0.436077 0.311134
0.126394 0.465652 0.312313
0.135751 0.503283 0.316233
0.142890 0.533667 0.314347
0.150204 0.565194 0.311421
0.161587 0.612040 0.313630
0.170688 0.651334 0.310185
0.184087 0.707218 0.310970
0.199809 0.772776 0.312096
0.217332 0.846302 0.312207
0.232706 0.912941 0.306390
0.256398 1.012758 0.305653
0.282224 1.122659 0.301881
0.316417 1.267346 0.299255
0.358818 1.447148 0.294971
0.418128 1.697789 0.291379
0.513098 2.096872 0.291873
0.576637 2.375398 0.259974
0.837592 3.470401 0.265238
1.210983 5.052479 0.229444
1.198535 5.048318 0.093334
-0.024870 -2.942224 0.101082
-0.018720 -2.984733 0.180097
-0.012407 -3.061982 0.264017
-0.005755 -2.983550 0.337039
-0.000694 -2.381461 0.341104
0.002646 -1.969467 0.342318
0.004762 -1.640043 0.336593
0.006430 -1.419259 0.335785
0.007746 -1.252380 0.335889
0.008702 -1.112704 0.334289
0.009334 -0.991354 0.330594
0.009917 -0.896773 0.328931
0.010469 -0.820971 0.328749
0.010894 -0.754264 0.327978
0.011012 -0.687276 0.323550
0.011567 -0.646730 0.327033
0.011455 -0.590202 0.320964
0.011876 -0.557710 0.323784
0.011912 -0.518440 0.321335
0.012086 -0.487524 0.321479
