7758410.392025 -369053.597398 1.777463 1583936352.611308 -0.205199 0.978720
7758410.365755 -369053.470177 1.769687 1583936352.661297 -0.197582 0.980286
7758410.340165 -369053.341692 1.761210 1583936352.711303 -0.189266 0.981926
7758410.315290 -369053.210607 1.752361 1583936352.761301 -0.180569 0.983562
7758410.291277 -369053.077445 1.743090 1583936352.811255 -0.171442 0.985194
7758410.268095 -369052.941161 1.733458 1583936352.861243 -0.161945 0.986800
7758410.245864 -369052.803372 1.723241 1583936352.911250 -0.151854 0.988403
7758410.224842 -369052.663437 1.712774 1583936352.961214 -0.141501 0.989938
7758410.204946 -369052.521423 1.702022 1583936353.011208 -0.130849 0.991402
7758410.186412 -369052.376970 1.691116 1583936353.061211 -0.120030 0.992770
7758410.169269 -369052.231229 1.679842 1583936353.111174 -0.108830 0.994060
7758410.153578 -369052.082696 1.668435 1583936353.161177 -0.097484 0.995237
7758410.139548 -369051.932179 1.656980 1583936353.211153 -0.086077 0.996288
7758410.127095 -369051.779970 1.645301 1583936353.261192 -0.074436 0.997226
7758410.116654 -369051.626089 1.633520 1583936353.311127 -0.062683 0.998034
7758410.107740 -369051.469943 1.621496 1583936353.361221 -0.050678 0.998715
7758410.100559 -369051.312606 1.609534 1583936353.411119 -0.038728 0.999250
7758410.095263 -369051.152454 1.597505 1583936353.461093 -0.026705 0.999643
7758410.091820 -369050.990594 1.585142 1583936353.511094 -0.014345 0.999897
7758410.090308 -369050.827001 1.572762 1583936353.561041 -0.001965 0.999998
7758410.090930 -369050.661321 1.560231 1583936353.611039 0.010566 0.999944
7758410.093648 -369050.493333 1.547637 1583936353.661033 0.023158 0.999732
7758410.098543 -369050.323837 1.534727 1583936353.711040 0.036062 0.999350
7758410.105825 -369050.151808 1.521732 1583936353.760997 0.049045 0.998797
7758410.115446 -369049.977473 1.508575 1583936353.810993 0.062181 0.998065
7758410.127500 -369049.801248 1.495378 1583936353.860911 0.075346 0.997157
7758410.142114 -369049.623535 1.481889 1583936353.910918 0.088790 0.996050
7758410.159272 -369049.444580 1.468439 1583936353.960867 0.102178 0.994766
7758410.178976 -369049.264379 1.455057 1583936354.010841 0.115481 0.993310
7758410.201214 -369049.083218 1.441545 1583936354.060821 0.128891 0.991659
7758410.226295 -369048.900392 1.427886 1583936354.110790 0.142425 0.989806
7758410.254227 -369048.715112 1.414206 1583936354.160819 0.155952 0.987765
7758410.284974 -369048.528453 1.400475 1583936354.210705 0.169499 0.985530
7758410.318821 -369048.339226 1.386749 1583936354.260736 0.183010 0.983111
7758410.355804 -369048.148092 1.372771 1583936354.310694 0.196733 0.980457
7758410.395665 -369047.955718 1.358941 1583936354.360657 0.210274 0.977642
7758410.438655 -369047.761967 1.345165 1583936354.410660 0.223722 0.974653
7758410.484565 -369047.567460 1.331583 1583936354.460614 0.236939 0.971525
7758410.533604 -369047.372080 1.318019 1583936354.510643 0.250094 0.968222
7758410.585549 -369047.176176 1.304436 1583936354.560583 0.263222 0.964735
7758410.640721 -369046.979060 1.290728 1583936354.610518 0.276421 0.961037
7758410.699420 -369046.780188 1.276868 1583936354.660523 0.289715 0.957113
7758410.761649 -369046.579606 1.262820 1583936354.710483 0.303131 0.952949
7758410.827455 -369046.377681 1.248649 1583936354.760470 0.316604 0.948558
7758410.896687 -369046.174974 1.234403 1583936354.810436 0.330085 0.943951
7758410.969457 -369045.971471 1.220161 1583936354.860437 0.343494 0.939155
7758411.045571 -369045.767787 1.205841 1583936354.910383 0.356908 0.934140
7758411.125330 -369045.563324 1.191826 1583936354.960390 0.369964 0.929046
7758411.208704 -369045.358000 1.178082 1583936355.010341 0.382697 0.923874
7758411.296118 -369045.151433 1.164785 1583936355.060325 0.394948 0.918704
7758411.386951 -369044.944549 1.151646 1583936355.110209 0.406984 0.913435
7758411.481333 -369044.736705 1.138947 1583936355.160146 0.418551 0.908193
7758411.579120 -369044.528279 1.126554 1583936355.210030 0.429774 0.902936
7758411.680168 -369044.319370 1.114510 1583936355.259924 0.440617 0.897695
7758411.784657 -369044.109987 1.102412 1583936355.309852 0.451445 0.892299
7758411.892353 -369043.900287 1.090549 1583936355.359810 0.461999 0.886881
7758412.003596 -369043.689851 1.078782 1583936355.409719 0.472402 0.881383
7758412.118347 -369043.478851 1.067240 1583936355.459614 0.482543 0.875872
7758412.236897 -369043.266715 1.055619 1583936355.509533 0.492689 0.870205
7758412.359064 -369043.053840 1.044377 1583936355.559443 0.502441 0.864612
7758412.484913 -369042.840086 1.033467 1583936355.609355 0.511844 0.859079
7758412.614038 -369042.626083 1.023065 1583936355.659272 0.520752 0.853708
7758412.746351 -369042.411950 1.012906 1583936355.709174 0.529398 0.848374
7758412.881774 -369042.197559 1.003334 1583936355.759081 0.537494 0.843268
7758413.020400 -369041.982667 0.994271 1583936355.808990 0.545114 0.838362
7758413.161609 -369041.767723 0.985963 1583936355.858876 0.552060 0.833804
7758413.305553 -369041.552626 0.978138 1583936355.908786 0.558568 0.829459
7758413.451691 -369041.337512 0.971236 1583936355.958686 0.564280 0.825584
7758413.600460 -369041.121725 0.965184 1583936356.008635 0.569265 0.822154
7758413.751081 -369040.905653 0.960133 1583936356.058498 0.573411 0.819268
7758413.904435 -369040.688065 0.955517 1583936356.108426 0.577186 0.816612
7758414.060395 -369040.468793 0.951413 1583936356.158324 0.580533 0.814237
7758414.218740 -369040.248089 0.947591 1583936356.208203 0.583641 0.812012
7758414.379471 -369040.025652 0.944096 1583936356.258099 0.586475 0.809967
7758414.542274 -369039.802224 0.940679 1583936356.308004 0.589240 0.807958
7758414.706877 -369039.577741 0.937670 1583936356.357906 0.591668 0.806182
7758414.873160 -369039.352204 0.934896 1583936356.407865 0.593902 0.804537
7758415.040772 -369039.126174 0.932328 1583936356.457692 0.595966 0.803010
7758415.210516 -369038.898732 0.929608 1583936356.507642 0.598148 0.801385
7758415.382392 -369038.669580 0.926956 1583936356.557593 0.600271 0.799797
7758415.556288 -369038.439008 0.924292 1583936356.607481 0.602400 0.798194
7758415.732722 -369038.206404 0.921686 1583936356.657410 0.604478 0.796622
7758415.911199 -369037.972449 0.918907 1583936356.707346 0.606689 0.794939
7758416.091707 -369037.737223 0.916260 1583936356.757275 0.608791 0.793331
7758416.273788 -369037.501238 0.913837 1583936356.807215 0.610712 0.791853
7758416.457444 -369037.264169 0.911723 1583936356.857196 0.612384 0.790560
7758416.642947 -369037.026128 0.909654 1583936356.907154 0.614019 0.789291
7758416.829837 -369036.786820 0.907782 1583936356.957059 0.615495 0.788141
7758417.018779 -369036.545960 0.905931 1583936357.007041 0.616953 0.787000
7758417.209133 -369036.303763 0.904412 1583936357.056923 0.618148 0.786062
7758417.401011 -369036.060359 0.902753 1583936357.106861 0.619451 0.785035
7758417.594666 -369035.815333 0.901119 1583936357.156843 0.620733 0.784022
7758417.789904 -369035.569256 0.899526 1583936357.206714 0.621981 0.783032
7758417.987468 -369035.320932 0.898095 1583936357.256670 0.623101 0.782141
7758418.187159 -369035.070853 0.896636 1583936357.306581 0.624242 0.781231
7758418.390104 -369034.817292 0.895354 1583936357.356565 0.625242 0.780431
7758418.594597 -369034.562356 0.894193 1583936357.406485 0.626148 0.779704
7758418.801298 -369034.305371 0.893191 1583936357.456441 0.626929 0.779077
7758419.009324 -369034.047326 0.892029 1583936357.506347 0.627834 0.778347
7758419.218793 -369033.788154 0.890827 1583936357.556303 0.628769 0.777592
7758419.429045 -369033.528634 0.889522 1583936357.606238 0.629783 0.776771
7758419.640679 -369033.268125 0.888262 1583936357.656198 0.630761 0.775977
7758419.853231 -369033.007342 0.886871 1583936357.706104 0.631841 0.775098
7758420.067737 -369032.744671 0.885585 1583936357.756106 0.632837 0.774285
7758420.283642 -369032.481086 0.884359 1583936357.806054 0.633785 0.773509
7758420.501687 -369032.215385 0.883265 1583936357.855999 0.634631 0.772815
7758420.721524 -369031.948388 0.882070 1583936357.905955 0.635555 0.772056
7758420.943242 -369031.679658 0.880977 1583936357.955955 0.636398 0.771361
7758421.166048 -369031.410078 0.879907 1583936358.005945 0.637223 0.770680
7758421.389539 -369031.140227 0.878882 1583936358.055888 0.638013 0.770026
7758421.613940 -369030.870039 0.877722 1583936358.105829 0.638906 0.769285
7758421.839792 -369030.598734 0.876629 1583936358.155836 0.639746 0.768586
7758422.066585 -369030.326812 0.875538 1583936358.205758 0.640584 0.767888
7758422.295258 -369030.053304 0.874451 1583936358.255743 0.641418 0.767192
7758422.525464 -369029.778681 0.873165 1583936358.305702 0.642404 0.766366
7758422.757246 -369029.502955 0.871841 1583936358.355659 0.643419 0.765514
7758422.990470 -369029.226215 0.870391 1583936358.405638 0.644527 0.764581
7758423.224747 -369028.948936 0.868916 1583936358.455544 0.645655 0.763629
7758423.461149 -369028.670227 0.867219 1583936358.505527 0.646949 0.762533
7758423.698858 -369028.390852 0.865495 1583936358.555456 0.648263 0.761416
7758423.937991 -369028.110755 0.863690 1583936358.605468 0.649636 0.760245
7758424.178176 -369027.830405 0.861910 1583936358.655397 0.650989 0.759087
7758424.420108 -369027.549209 0.859995 1583936358.705359 0.652442 0.757839
7758424.663205 -369027.267580 0.858142 1583936358.755284 0.653844 0.756629
7758424.907762 -369026.985304 0.856286 1583936358.805226 0.655248 0.755414
7758425.153913 -369026.702145 0.854488 1583936358.855223 0.656605 0.754235
7758425.401203 -369026.418794 0.852589 1583936358.905186 0.658036 0.752987
7758425.649899 -369026.134937 0.850757 1583936358.955145 0.659414 0.751780
7758425.900315 -369025.850120 0.848920 1583936359.005148 0.660794 0.750568
7758426.152497 -369025.564279 0.847162 1583936359.055141 0.662113 0.749404
7758426.406476 -369025.277410 0.845308 1583936359.105078 0.663501 0.748175
7758426.662685 -369024.989181 0.843561 1583936359.155109 0.664807 0.747015
7758426.919309 -369024.701372 0.841916 1583936359.205042 0.666035 0.745921
7758427.177223 -369024.413043 0.840430 1583936359.255067 0.667143 0.744930
7758427.436139 -369024.124593 0.838929 1583936359.305028 0.668260 0.743928
7758427.696239 -369023.835551 0.837574 1583936359.355026 0.669267 0.743022
7758427.957597 -369023.545858 0.836334 1583936359.405033 0.670188 0.742191
7758428.221027 -369023.254639 0.835037 1583936359.455083 0.671151 0.741321
7758428.484828 -369022.963812 0.833679 1583936359.504944 0.672156 0.740409
7758428.750508 -369022.671576 0.832378 1583936359.554946 0.673119 0.739534
7758429.017008 -369022.379274 0.831157 1583936359.604911 0.674021 0.738712
7758429.284972 -369022.086034 0.829892 1583936359.654860 0.674955 0.737859
7758429.555254 -369021.790973 0.828564 1583936359.705010 0.675935 0.736961
7758429.824653 -369021.497728 0.827355 1583936359.754772 0.676826 0.736143
7758430.096131 -369021.202828 0.826171 1583936359.804729 0.677696 0.735342
7758430.368851 -369020.907299 0.825085 1583936359.854701 0.678494 0.734606
7758430.642934 -369020.610983 0.823882 1583936359.904642 0.679378 0.733789
7758430.918306 -369020.313818 0.822792 1583936359.954620 0.680177 0.733048
7758431.194915 -369020.016057 0.821582 1583936360.004578 0.681064 0.732224
7758431.472252 -369019.718186 0.820449 1583936360.054515 0.681893 0.731452
7758431.750786 -369019.419729 0.819217 1583936360.104454 0.682793 0.730612
7758432.030365 -369019.120997 0.817876 1583936360.154432 0.683773 0.729695
7758432.310971 -369018.822024 0.816382 1583936360.204399 0.684862 0.728673
7758432.593086 -369018.522289 0.814635 1583936360.254391 0.686134 0.727475
7758432.876531 -369018.222350 0.812691 1583936360.304391 0.687547 0.726140
7758433.161835 -369017.921732 0.810589 1583936360.354349 0.689072 0.724693
7758433.448517 -369017.620816 0.808592 1583936360.404390 0.690518 0.723315
7758433.736246 -369017.320018 0.806543 1583936360.454358 0.691998 0.721899
7758434.025377 -369017.019041 0.804526 1583936360.504335 0.693453 0.720502
7758434.315708 -369016.718042 0.802447 1583936360.554270 0.694949 0.719059
7758434.607465 -369016.416808 0.800464 1583936360.604308 0.696374 0.717679
7758434.900131 -369016.115915 0.798397 1583936360.654232 0.697855 0.716239
7758435.194742 -369015.814349 0.796242 1583936360.704262 0.699398 0.714733
7758435.490608 -369015.512666 0.793989 1583936360.754241 0.701006 0.713155
7758435.787218 -369015.211555 0.791832 1583936360.804265 0.702543 0.711641
7758436.085140 -369014.910271 0.789626 1583936360.854229 0.704111 0.710090
7758436.385171 -369014.608356 0.787483 1583936360.904261 0.705631 0.708579
7758436.686184 -369014.306596 0.785403 1583936360.954175 0.707103 0.707110
7758436.989913 -369014.003596 0.783331 1583936361.004213 0.708567 0.705644
7758437.294916 -369013.700469 0.781258 1583936361.054217 0.710029 0.704173
7758437.601424 -369013.397079 0.779179 1583936361.104268 0.711491 0.702695
7758437.909267 -369013.093585 0.777045 1583936361.154228 0.712989 0.701175
7758438.217944 -369012.790548 0.775032 1583936361.204192 0.714399 0.699739
7758438.527745 -369012.487620 0.773151 1583936361.254185 0.715714 0.698394
7758438.839566 -369012.183810 0.771262 1583936361.304205 0.717032 0.697040
7758439.152513 -369011.880196 0.769343 1583936361.354128 0.718368 0.695663
7758439.466676 -369011.576560 0.767565 1583936361.404163 0.719604 0.694385
7758439.782115 -369011.272743 0.765722 1583936361.454107 0.720882 0.693058
7758440.099136 -369010.968533 0.763874 1583936361.504114 0.722162 0.691724
7758440.416955 -369010.664617 0.762034 1583936361.554073 0.723434 0.690394
7758440.736832 -369010.359944 0.760204 1583936361.604080 0.724696 0.689069
7758441.057797 -369010.055341 0.758403 1583936361.654099 0.725935 0.687763
7758441.379761 -369009.750671 0.756626 1583936361.704037 0.727156 0.686472
7758441.704344 -369009.444683 0.754774 1583936361.754037 0.728427 0.685124
7758442.029746 -369009.139140 0.753043 1583936361.803974 0.729611 0.683862
7758442.357545 -369008.832228 0.751251 1583936361.853998 0.730835 0.682554
7758442.686687 -369008.525290 0.749514 1583936361.903963 0.732020 0.681283
7758443.017017 -369008.218298 0.747926 1583936361.953963 0.733101 0.680120
7758443.348211 -369007.911418 0.746523 1583936362.003952 0.734055 0.679090
7758443.680012 -369007.604851 0.745314 1583936362.053893 0.734875 0.678202
7758444.013022 -369007.297747 0.744223 1583936362.103840 0.735614 0.677401
7758444.347503 -369006.990122 0.743157 1583936362.153797 0.736336 0.676616
7758444.683470 -369006.681660 0.742070 1583936362.203758 0.737071 0.675815
7758445.020708 -369006.372678 0.740955 1583936362.253710 0.737824 0.674993
7758445.359245 -369006.063264 0.739836 1583936362.303668 0.738579 0.674167
7758445.698554 -369005.753741 0.738770 1583936362.353628 0.739297 0.673379
7758446.039227 -369005.443708 0.737793 1583936362.403618 0.739955 0.672656
7758446.380263 -369005.133890 0.736935 1583936362.453511 0.740532 0.672021
7758446.722749 -369004.823250 0.736193 1583936362.503454 0.741030 0.671472
7758447.066687 -369004.511707 0.735542 1583936362.553448 0.741467 0.670989
7758447.411516 -369004.199840 0.734893 1583936362.603373 0.741902 0.670508
7758447.757362 -369003.887445 0.734244 1583936362.653302 0.742337 0.670026
7758448.104592 -369003.574140 0.733593 1583936362.703262 0.742774 0.669543
7758448.452703 -369003.260581 0.732940 1583936362.753172 0.743210 0.669058
7758448.802339 -369002.945933 0.732290 1583936362.803171 0.743645 0.668574
7758449.152451 -369002.631365 0.731676 1583936362.853096 0.744056 0.668117
7758449.504150 -369002.315711 0.731048 1583936362.903092 0.744475 0.667650
7758449.856388 -369002.000010 0.730346 1583936362.953058 0.744944 0.667127
7758450.210207 -369001.683398 0.729547 1583936363.003089 0.745476 0.666532
7758450.564730 -369001.366760 0.728578 1583936363.053040 0.746122 0.665809
7758450.920797 -369001.049487 0.727436 1583936363.103026 0.746882 0.664957
7758451.278389 -369000.731553 0.726136 1583936363.153011 0.747746 0.663985
7758451.637774 -369000.413019 0.724673 1583936363.203018 0.748716 0.662891
7758451.997954 -369000.094709 0.723062 1583936363.253007 0.749783 0.661684
7758452.359299 -368999.776343 0.721340 1583936363.302982 0.750922 0.660391
7758452.722043 -368999.457876 0.719564 1583936363.352969 0.752093 0.659057
7758453.085826 -368999.139654 0.717778 1583936363.402936 0.753269 0.657713
7758453.451381 -368998.821036 0.716041 1583936363.452945 0.754410 0.656403
7758453.818123 -368998.502419 0.714338 1583936363.502914 0.755527 0.655117
7758454.186109 -368998.183889 0.712626 1583936363.552870 0.756647 0.653823
7758454.555615 -368997.865187 0.710915 1583936363.602817 0.757765 0.652528
7758454.926543 -368997.546366 0.709202 1583936363.652781 0.758882 0.651228
7758455.298849 -368997.227455 0.707502 1583936363.702737 0.759988 0.649938
7758455.672678 -368996.908421 0.705839 1583936363.752724 0.761068 0.648672
7758456.047652 -368996.589364 0.704260 1583936363.802709 0.762091 0.647470
7758456.423655 -368996.270450 0.702856 1583936363.852672 0.762999 0.646400
7758456.800622 -368995.951533 0.701680 1583936363.902608 0.763759 0.645502
7758457.178570 -368995.632422 0.700782 1583936363.952554 0.764338 0.644816
7758457.557661 -368995.312829 0.700140 1583936364.002507 0.764752 0.644325
7758457.937319 -368994.993358 0.699681 1583936364.052431 0.765048 0.643973
7758458.317738 -368994.673351 0.699342 1583936364.102387 0.765266 0.643714
7758458.699059 -368994.352987 0.699037 1583936364.152306 0.765462 0.643481
7758459.081547 -368994.031698 0.698721 1583936364.202301 0.765666 0.643239
7758459.463898 -368993.710619 0.698377 1583936364.252223 0.765887 0.642975
7758459.847412 -368993.389027 0.698043 1583936364.302142 0.766101 0.642720
7758460.231464 -368993.067211 0.697744 1583936364.352101 0.766294 0.642490
7758460.615400 -368992.745696 0.697478 1583936364.402056 0.766465 0.642286
7758460.999481 -368992.424056 0.697269 1583936364.451978 0.766598 0.642127
7758461.384194 -368992.102024 0.697094 1583936364.501955 0.766711 0.641992
7758461.769033 -368991.780053 0.696920 1583936364.551908 0.766823 0.641859
7758462.154584 -368991.457636 0.696751 1583936364.601873 0.766931 0.641729
7758462.540606 -368991.134933 0.696586 1583936364.651832 0.767037 0.641603
7758462.926390 -368990.812562 0.696425 1583936364.701748 0.767140 0.641479
7758463.312976 -368990.489558 0.696270 1583936364.751701 0.767240 0.641360
7758463.700136 -368990.166275 0.696116 1583936364.801656 0.767338 0.641243
7758464.088378 -368989.842164 0.695967 1583936364.851617 0.767434 0.641128
7758464.477153 -368989.517700 0.695821 1583936364.901536 0.767528 0.641016
7758464.867028 -368989.192532 0.695676 1583936364.951532 0.767621 0.640904
7758465.256297 -368988.867729 0.695536 1583936365.001493 0.767710 0.640797
7758465.644706 -368988.543801 0.695397 1583936365.051448 0.767800 0.640690
7758466.032077 -368988.220839 0.695268 1583936365.101382 0.767882 0.640591
7758466.419725 -368987.897781 0.695182 1583936365.151343 0.767937 0.640525
7758466.807953 -368987.574214 0.695131 1583936365.201297 0.767970 0.640486
7758467.197595 -368987.249456 0.695147 1583936365.251256 0.767960 0.640498
7758467.588941 -368986.923249 0.695215 1583936365.301216 0.767916 0.640551
7758467.982177 -368986.595419 0.695346 1583936365.351177 0.767832 0.640651
7758468.376303 -368986.266842 0.695547 1583936365.401128 0.767703 0.640806
7758468.771365 -368985.937246 0.695784 1583936365.451088 0.767551 0.640987
7758469.166361 -368985.607571 0.696026 1583936365.501076 0.767396 0.641173
7758469.559894 -368985.279053 0.696276 1583936365.551007 0.767236 0.641365
7758469.953016 -368984.950681 0.696547 1583936365.600925 0.767062 0.641573
7758470.346346 -368984.621881 0.696824 1583936365.650878 0.766884 0.641786
7758470.740355 -368984.292454 0.697089 1583936365.700879 0.766714 0.641989
7758471.135474 -368983.961860 0.697357 1583936365.750843 0.766542 0.642194
7758471.532163 -368983.629909 0.697630 1583936365.800849 0.766367 0.642403
7758471.928827 -368983.297600 0.697911 1583936365.850836 0.766186 0.642618
7758472.325323 -368982.965381 0.698192 1583936365.900765 0.766005 0.642834
7758472.722809 -368982.632142 0.698454 1583936365.950769 0.765838 0.643034
7758473.119717 -368982.299269 0.698652 1583936366.000731 0.765710 0.643186
7758473.517664 -368981.965382 0.698743 1583936366.050738 0.765652 0.643255
7758473.915874 -368981.631388 0.698664 1583936366.100695 0.765702 0.643195
7758474.314595 -368981.297083 0.698459 1583936366.150674 0.765834 0.643038
7758474.714142 -368980.962279 0.698185 1583936366.200666 0.766010 0.642829
7758475.114260 -368980.627203 0.697862 1583936366.250615 0.766217 0.642581
7758475.515351 -368980.291446 0.697531 1583936366.300619 0.766430 0.642327
7758475.917239 -368979.955249 0.697207 1583936366.350581 0.766638 0.642079
7758476.319500 -368979.618879 0.696889 1583936366.400504 0.766843 0.641835
7758476.722425 -368979.282152 0.696578 1583936366.450446 0.767042 0.641597
7758477.125686 -368978.945472 0.696302 1583936366.500383 0.767219 0.641385
7758477.529334 -368978.608690 0.696054 1583936366.550339 0.767378 0.641195
7758477.933194 -368978.271786 0.695836 1583936366.600270 0.767518 0.641027
7758478.337840 -368977.934315 0.695623 1583936366.650177 0.767654 0.640864
7758478.744274 -368977.595601 0.695411 1583936366.700175 0.767790 0.640701
7758479.151413 -368977.256319 0.695266 1583936366.750119 0.767883 0.640590
7758479.559256 -368976.916591 0.695240 1583936366.800094 0.767900 0.640570
7758479.967147 -368976.576836 0.695198 1583936366.850036 0.767927 0.640538
7758480.374953 -368976.237161 0.695162 1583936366.899971 0.767950 0.640510
7758480.782764 -368975.897444 0.695132 1583936366.949900 0.767969 0.640487
7758481.191037 -368975.557517 0.695135 1583936366.999851 0.767967 0.640489
7758481.599913 -368975.217033 0.695189 1583936367.049785 0.767933 0.640531
7758482.010426 -368974.874991 0.695237 1583936367.099848 0.767902 0.640567
7758482.420459 -368974.533447 0.695276 1583936367.149747 0.767877 0.640598
7758482.831666 -368974.190940 0.695319 1583936367.199696 0.767850 0.640630
7758483.243429 -368973.847844 0.695382 1583936367.249608 0.767809 0.640679
7758483.655867 -368973.504068 0.695495 1583936367.299567 0.767736 0.640766
7758484.069156 -368973.159497 0.695636 1583936367.349534 0.767646 0.640874
7758484.482318 -368972.814876 0.695782 1583936367.399455 0.767553 0.640986
7758484.895875 -368972.469738 0.695938 1583936367.449415 0.767452 0.641106
7758485.309910 -368972.124227 0.696096 1583936367.499378 0.767351 0.641227
7758485.722916 -368971.779339 0.696255 1583936367.549306 0.767249 0.641349
7758486.137529 -368971.433106 0.696420 1583936367.599257 0.767144 0.641475
7758486.552584 -368971.086377 0.696589 1583936367.649205 0.767035 0.641605
7758486.968431 -368970.738882 0.696740 1583936367.699196 0.766939 0.641721
7758487.384785 -368970.390799 0.696871 1583936367.749152 0.766854 0.641821
7758487.801611 -368970.042260 0.697009 1583936367.799092 0.766765 0.641927
7758488.220003 -368969.692371 0.697152 1583936367.849130 0.766674 0.642037
7758488.638386 -368969.342333 0.697299 1583936367.899135 0.766579 0.642150
7758489.056299 -368968.992686 0.697454 1583936367.949054 0.766480 0.642268
7758489.474340 -368968.642806 0.697612 1583936367.999002 0.766379 0.642389
7758489.892131 -368968.292869 0.697765 1583936368.048960 0.766280 0.642507
7758490.309629 -368967.943034 0.697860 1583936368.098916 0.766219 0.642580
7758490.726336 -368967.593846 0.697934 1583936368.148840 0.766172 0.642636
7758491.143094 -368967.244668 0.697915 1583936368.198833 0.766184 0.642621
7758491.559072 -368966.896141 0.697798 1583936368.248795 0.766259 0.642532
7758491.974658 -368966.548040 0.697607 1583936368.298753 0.766382 0.642386
7758492.390427 -368966.199979 0.697390 1583936368.348752 0.766521 0.642220
7758492.805329 -368965.852783 0.697178 1583936368.398644 0.766657 0.642057
7758493.220260 -368965.505752 0.697017 1583936368.448560 0.766760 0.641933
7758493.635439 -368965.158524 0.696867 1583936368.498543 0.766857 0.641818
7758494.049729 -368964.812076 0.696721 1583936368.548464 0.766950 0.641707
7758494.464229 -368964.465541 0.696581 1583936368.598471 0.767040 0.641599
7758494.877478 -368964.120210 0.696443 1583936368.648383 0.767129 0.641493
7758495.290637 -368963.774955 0.696309 1583936368.698340 0.767215 0.641390
7758495.703453 -368963.430066 0.696222 1583936368.748336 0.767271 0.641323
7758496.114999 -368963.086286 0.696166 1583936368.798263 0.767307 0.641280
7758496.526106 -368962.742877 0.696207 1583936368.848236 0.767280 0.641312
7758496.936190 -368962.400298 0.696302 1583936368.898176 0.767219 0.641385
7758497.345820 -368962.057945 0.696507 1583936368.948157 0.767088 0.641542
7758497.754794 -368961.716012 0.696779 1583936368.998128 0.766913 0.641751
7758498.163100 -368961.374467 0.697080 1583936369.048069 0.766720 0.641982
7758498.570685 -368961.033376 0.697376 1583936369.097983 0.766530 0.642209
7758498.978449 -368960.691871 0.697641 1583936369.147988 0.766360 0.642412
7758499.385142 -368960.351108 0.697858 1583936369.197928 0.766220 0.642578
7758499.791504 -368960.010544 0.698033 1583936369.247932 0.766108 0.642712
7758500.196393 -368959.671131 0.698183 1583936369.297862 0.766012 0.642827
7758500.600528 -368959.332213 0.698291 1583936369.347821 0.765942 0.642909
7758501.003737 -368958.993978 0.698396 1583936369.397785 0.765875 0.642990
7758501.406517 -368958.656049 0.698436 1583936369.447773 0.765849 0.643021
7758501.808777 -368958.318515 0.698344 1583936369.497733 0.765908 0.642950
7758502.211001 -368957.981103 0.698173 1583936369.547742 0.766018 0.642819
7758502.612941 -368957.644048 0.697930 1583936369.597781 0.766174 0.642633
7758503.013631 -368957.308233 0.697662 1583936369.647691 0.766346 0.642428
7758503.414814 -368956.972164 0.697391 1583936369.697758 0.766520 0.642220
7758503.815383 -368956.636788 0.697126 1583936369.747763 0.766690 0.642017
7758504.214392 -368956.302828 0.696865 1583936369.797715 0.766858 0.641817
7758504.613058 -368955.969314 0.696598 1583936369.847694 0.767029 0.641612
7758505.011215 -368955.636439 0.696316 1583936369.897641 0.767210 0.641396
7758505.409579 -368955.303578 0.696035 1583936369.947683 0.767391 0.641180
7758505.806776 -368954.971831 0.695760 1583936369.997644 0.767567 0.640969
7758506.203570 -368954.640571 0.695485 1583936370.047543 0.767743 0.640758
7758506.600379 -368954.309473 0.695211 1583936370.097539 0.767918 0.640548
7758506.996917 -368953.978826 0.694947 1583936370.147573 0.768088 0.640345
7758507.392263 -368953.649310 0.694698 1583936370.197527 0.768247 0.640153
7758507.787091 -368953.320376 0.694451 1583936370.247491 0.768405 0.639964
7758508.180776 -368952.992564 0.694191 1583936370.297420 0.768572 0.639764
7758508.574158 -368952.665121 0.693945 1583936370.347328 0.768729 0.639575
7758508.967927 -368952.337478 0.693696 1583936370.397267 0.768888 0.639384
7758509.362181 -368952.009550 0.693444 1583936370.447253 0.769049 0.639189
7758509.756437 -368951.681797 0.693188 1583936370.497205 0.769213 0.638993
7758510.150669 -368951.354178 0.692946 1583936370.547169 0.769367 0.638807
7758510.543890 -368951.027549 0.692734 1583936370.597125 0.769503 0.638643
7758510.935953 -368950.702058 0.692519 1583936370.647040 0.769640 0.638478
7758511.327231 -368950.377329 0.692305 1583936370.697001 0.769777 0.638313
7758511.717927 -368950.053274 0.692091 1583936370.746963 0.769913 0.638148
7758512.108444 -368949.729527 0.691872 1583936370.796928 0.770053 0.637980
7758512.498392 -368949.406431 0.691639 1583936370.846884 0.770202 0.637801
7758512.888005 -368949.083802 0.691365 1583936370.896819 0.770377 0.637589
7758513.277545 -368948.761436 0.691012 1583936370.946759 0.770601 0.637317
7758513.666914 -368948.439407 0.690543 1583936370.996727 0.770900 0.636956
7758514.055970 -368948.117998 0.689955 1583936371.046676 0.771274 0.636503
7758514.445225 -368947.796825 0.689300 1583936371.096633 0.771691 0.635997
7758514.834150 -368947.476368 0.688645 1583936371.146593 0.772108 0.635492
7758515.222462 -368947.156789 0.688057 1583936371.196583 0.772482 0.635037
7758515.609664 -368946.838428 0.687582 1583936371.246468 0.772783 0.634671
7758515.996853 -368946.520378 0.687177 1583936371.296436 0.773040 0.634357
7758516.383264 -368946.203175 0.686812 1583936371.346358 0.773271 0.634075
7758516.770106 -368945.885838 0.686453 1583936371.396357 0.773499 0.633797
7758517.156221 -368945.569306 0.686073 1583936371.446312 0.773740 0.633504
7758517.542412 -368945.252954 0.685677 1583936371.496302 0.773990 0.633197
7758517.927919 -368944.937433 0.685245 1583936371.546230 0.774264 0.632863
7758518.313531 -368944.622065 0.684777 1583936371.596219 0.774560 0.632500
7758518.698208 -368944.307717 0.684325 1583936371.646119 0.774846 0.632150
7758519.083826 -368943.992921 0.683880 1583936371.696160 0.775127 0.631806
7758519.468730 -368943.678957 0.683433 1583936371.746115 0.775409 0.631459
7758519.854045 -368943.364955 0.682983 1583936371.796099 0.775693 0.631110
7758520.239164 -368943.051395 0.682530 1583936371.846043 0.775980 0.630758
7758520.624353 -368942.738049 0.682072 1583936371.895965 0.776268 0.630403
7758521.010168 -368942.424400 0.681610 1583936371.945966 0.776559 0.630044
7758521.395799 -368942.111247 0.681144 1583936371.995915 0.776853 0.629683
7758521.781237 -368941.798550 0.680674 1583936372.045884 0.777148 0.629317
7758522.166692 -368941.486092 0.680202 1583936372.095860 0.777446 0.628950
7758522.551765 -368941.174235 0.679767 1583936372.145802 0.777719 0.628612
7758522.937356 -368940.862171 0.679322 1583936372.195792 0.777999 0.628266
7758523.323192 -368940.550234 0.678873 1583936372.245753 0.778281 0.627916
7758523.709125 -368940.238551 0.678420 1583936372.295689 0.778565 0.627564
7758524.095786 -368939.926507 0.678015 1583936372.345641 0.778819 0.627249
7758524.482386 -368939.614810 0.677675 1583936372.395576 0.779033 0.626983
7758524.869058 -368939.303162 0.677467 1583936372.445515 0.779163 0.626822
7758525.256012 -368938.991327 0.677403 1583936372.495472 0.779203 0.626771
7758525.643355 -368938.679243 0.677488 1583936372.545445 0.779150 0.626838
7758526.030490 -368938.367276 0.677680 1583936372.595351 0.779029 0.626987
7758526.418353 -368938.054618 0.677966 1583936372.645283 0.778850 0.627210
7758526.806918 -368937.741175 0.678315 1583936372.695270 0.778631 0.627482
7758527.195527 -368937.427477 0.678684 1583936372.745189 0.778399 0.627769
7758527.584930 -368937.112955 0.679049 1583936372.795158 0.778170 0.628053
7758527.974632 -368936.797924 0.679383 1583936372.845106 0.777961 0.628313
7758528.365235 -368936.481983 0.679691 1583936372.895107 0.777767 0.628553
7758528.755888 -368936.165833 0.680017 1583936372.945025 0.777562 0.628806
7758529.147467 -368935.848734 0.680388 1583936372.994988 0.777328 0.629095
7758529.540247 -368935.530475 0.680783 1583936373.044944 0.777080 0.629402
7758529.933822 -368935.211352 0.681201 1583936373.094909 0.776817 0.629726
7758530.328622 -368934.890949 0.681536 1583936373.144898 0.776606 0.629987
7758530.723059 -368934.570620 0.681776 1583936373.194798 0.776455 0.630173
7758531.118456 -368934.249476 0.681836 1583936373.244753 0.776417 0.630220
7758531.514213 -368933.928080 0.681800 1583936373.294751 0.776439 0.630192
7758531.909888 -368933.606744 0.681788 1583936373.344713 0.776447 0.630182
7758532.306033 -368933.284926 0.681796 1583936373.394688 0.776442 0.630189
7758532.702671 -368932.962708 0.681825 1583936373.444585 0.776424 0.630211
7758533.100647 -368932.639353 0.681828 1583936373.494548 0.776422 0.630213
7758533.499689 -368932.315201 0.681804 1583936373.544517 0.776437 0.630194
7758533.897998 -368931.991716 0.681813 1583936373.594406 0.776431 0.630202
7758534.299276 -368931.665684 0.681847 1583936373.644376 0.776410 0.630228
7758534.698736 -368931.341223 0.681893 1583936373.694330 0.776381 0.630264
7758535.100485 -368931.014750 0.681848 1583936373.744257 0.776410 0.630229
7758535.501390 -368930.689182 0.681830 1583936373.794214 0.776421 0.630215
7758535.903770 -368930.362366 0.681795 1583936373.844214 0.776443 0.630188
7758536.305742 -368930.035985 0.681758 1583936373.894093 0.776466 0.630159
7758536.708758 -368929.708831 0.681719 1583936373.944057 0.776491 0.630129
7758537.111330 -368929.381997 0.681681 1583936373.993965 0.776514 0.630099
7758537.515157 -368929.054166 0.681632 1583936374.043958 0.776545 0.630061
7758537.919151 -368928.726356 0.681496 1583936374.093841 0.776631 0.629955
7758538.324617 -368928.397552 0.681269 1583936374.143838 0.776774 0.629779
7758538.729829 -368928.069065 0.680919 1583936374.193716 0.776995 0.629507
7758539.136379 -368927.739722 0.680484 1583936374.243713 0.777268 0.629169
7758539.542134 -368927.411427 0.679977 1583936374.293592 0.777587 0.628775
7758539.948809 -368927.082652 0.679359 1583936374.343557 0.777975 0.628295
7758540.354958 -368926.754769 0.678623 1583936374.393440 0.778438 0.627722
7758540.762218 -368926.426554 0.677799 1583936374.443429 0.778955 0.627080
7758541.169300 -368926.099026 0.676912 1583936374.493387 0.779511 0.626389
7758541.576073 -368925.772412 0.676018 1583936374.543348 0.780070 0.625692
7758541.981290 -368925.447633 0.675146 1583936374.593261 0.780616 0.625011
7758542.386478 -368925.123413 0.674312 1583936374.643229 0.781137 0.624360
7758542.790604 -368924.800618 0.673482 1583936374.693187 0.781655 0.623711
7758543.193948 -368924.478924 0.672664 1583936374.743115 0.782165 0.623072
7758543.597579 -368924.157512 0.671863 1583936374.793086 0.782664 0.622445
7758544.000844 -368923.836895 0.671108 1583936374.843070 0.783133 0.621854
7758544.402848 -368923.517878 0.670386 1583936374.893041 0.783582 0.621288
7758544.803733 -368923.200130 0.669686 1583936374.942959 0.784017 0.620740
7758545.203910 -368922.883443 0.669039 1583936374.992918 0.784418 0.620232
7758545.603519 -368922.567574 0.668443 1583936375.042887 0.784788 0.619765
7758546.002947 -368922.252267 0.667865 1583936375.092850 0.785146 0.619311
7758546.402690 -368921.937157 0.667285 1583936375.142834 0.785504 0.618856
7758546.801766 -368921.622998 0.666693 1583936375.192720 0.785871 0.618391
7758547.201512 -368921.308724 0.666086 1583936375.242706 0.786246 0.617913
7758547.600664 -368920.995335 0.665446 1583936375.292655 0.786642 0.617410
7758547.999498 -368920.682585 0.664841 1583936375.342610 0.787015 0.616934
7758548.396689 -368920.371453 0.664251 1583936375.392475 0.787379 0.616469
7758548.794167 -368920.060557 0.663661 1583936375.442455 0.787742 0.616005
7758549.190603 -368919.750847 0.663073 1583936375.492353 0.788104 0.615542
7758549.587459 -368919.441220 0.662489 1583936375.542346 0.788464 0.615081
7758549.983292 -368919.132843 0.661899 1583936375.592267 0.788826 0.614616
7758550.379430 -368918.824526 0.661275 1583936375.642232 0.789210 0.614123
7758550.775479 -368918.516632 0.660623 1583936375.692236 0.789610 0.613609
7758551.170413 -368918.210239 0.659942 1583936375.742178 0.790028 0.613071
7758551.565398 -368917.904125 0.659258 1583936375.792179 0.790447 0.612531
7758551.959048 -368917.599575 0.658570 1583936375.842065 0.790868 0.611987
7758552.352037 -368917.296004 0.657841 1583936375.891986 0.791314 0.611410
7758552.745398 -368916.992637 0.657074 1583936375.941999 0.791783 0.610803
7758553.137600 -368916.690542 0.656292 1583936375.991916 0.792260 0.610183
7758553.529571 -368916.389213 0.655459 1583936376.041848 0.792768 0.609523
7758553.921815 -368916.088256 0.654589 1583936376.091829 0.793298 0.608833
7758554.313965 -368915.787867 0.653710 1583936376.141802 0.793833 0.608136
7758554.705408 -368915.488489 0.652844 1583936376.191732 0.794359 0.607448
7758555.096889 -368915.189751 0.652028 1583936376.241667 0.794855 0.606800
7758555.488339 -368914.891438 0.651328 1583936376.291677 0.795279 0.606243
7758555.879441 -368914.593747 0.650747 1583936376.341702 0.795631 0.605781
7758556.268904 -368914.297649 0.650294 1583936376.391596 0.795906 0.605420
7758556.658425 -368914.001791 0.649929 1583936376.441587 0.796127 0.605130
7758557.047658 -368913.706333 0.649632 1583936376.491553 0.796306 0.604894
7758557.436396 -368913.411411 0.649315 1583936376.541459 0.796498 0.604641
7758557.825348 -368913.116486 0.648966 1583936376.591423 0.796709 0.604363
7758558.214535 -368912.821649 0.648565 1583936376.641381 0.796952 0.604043
7758558.603364 -368912.527292 0.648146 1583936376.691344 0.797205 0.603709
7758558.991037 -368912.234008 0.647734 1583936376.741238 0.797453 0.603381
7758559.378766 -368911.940933 0.647350 1583936376.791230 0.797685 0.603075
7758559.765333 -368911.649068 0.647056 1583936376.841161 0.797862 0.602840
7758560.151346 -368911.357682 0.646767 1583936376.891144 0.798036 0.602610
7758560.536945 -368911.066859 0.646435 1583936376.941106 0.798236 0.602344
7758560.922236 -368910.776442 0.646052 1583936376.991061 0.798467 0.602038
7758561.307216 -368910.486551 0.645661 1583936377.041021 0.798702 0.601726
7758561.691949 -368910.196914 0.645276 1583936377.090976 0.798934 0.601419
7758562.075902 -368909.908271 0.644923 1583936377.140950 0.799146 0.601137
7758562.459954 -368909.619639 0.644724 1583936377.190911 0.799266 0.600978
7758562.843690 -368909.331344 0.644590 1583936377.240870 0.799346 0.600871
7758563.227099 -368909.043414 0.644502 1583936377.290845 0.799399 0.600801
7758563.609997 -368908.755946 0.644416 1583936377.340799 0.799451 0.600732
7758563.991877 -368908.469224 0.644358 1583936377.390730 0.799486 0.600685
7758564.373545 -368908.182706 0.644302 1583936377.440716 0.799519 0.600640
7758564.754441 -368907.896804 0.644270 1583936377.490675 0.799538 0.600615
7758565.134559 -368907.611492 0.644267 1583936377.540633 0.799540 0.600613
7758565.513798 -368907.326900 0.644265 1583936377.590532 0.799541 0.600611
7758565.893314 -368907.042067 0.644337 1583936377.640510 0.799498 0.600669
7758566.272386 -368906.757495 0.644505 1583936377.690452 0.799397 0.600803
7758566.651997 -368906.472541 0.644734 1583936377.740460 0.799259 0.600986
7758567.030577 -368906.188074 0.644977 1583936377.790401 0.799114 0.601180
7758567.409003 -368905.903691 0.645220 1583936377.840389 0.798967 0.601375
7758567.786030 -368905.620280 0.645428 1583936377.890324 0.798842 0.601540
7758568.161958 -368905.337439 0.645589 1583936377.940254 0.798745 0.601669
7758568.537660 -368905.054763 0.645654 1583936377.990248 0.798706 0.601721
7758568.912508 -368904.772720 0.645678 1583936378.040209 0.798692 0.601740
7758569.286756 -368904.491200 0.645659 1583936378.090132 0.798704 0.601725
7758569.661725 -368904.208966 0.645656 1583936378.140196 0.798705 0.601722
7758570.035637 -368903.927439 0.645753 1583936378.190135 0.798647 0.601800
7758570.409505 -368903.645853 0.646041 1583936378.240156 0.798474 0.602030
7758570.782157 -368903.365127 0.646419 1583936378.290102 0.798246 0.602332
7758571.154723 -368903.084143 0.646791 1583936378.340126 0.798022 0.602629
7758571.525436 -368902.804297 0.647129 1583936378.390057 0.797818 0.602898
7758571.896135 -368902.524248 0.647418 1583936378.440094 0.797644 0.603129
7758572.265115 -368902.245377 0.647666 1583936378.490015 0.797494 0.603327
7758572.633844 -368901.966659 0.647910 1583936378.540036 0.797347 0.603521
7758573.001116 -368901.688881 0.648175 1583936378.589944 0.797187 0.603732
7758573.367823 -368901.411439 0.648468 1583936378.639925 0.797010 0.603966
7758573.733661 -368901.134383 0.648767 1583936378.689932 0.796829 0.604204
7758574.097136 -368900.858861 0.649068 1583936378.739896 0.796648 0.604444
7758574.459165 -368900.584327 0.649334 1583936378.789898 0.796486 0.604656
7758574.818432 -368900.311698 0.649595 1583936378.839864 0.796329 0.604864
7758575.175474 -368900.040614 0.649865 1583936378.889838 0.796166 0.605079
7758575.529247 -368899.771897 0.650130 1583936378.939813 0.796005 0.605290
7758575.880294 -368899.505073 0.650328 1583936378.989790 0.795885 0.605448
7758576.228476 -368899.240517 0.650465 1583936379.039800 0.795803 0.605556
7758576.573963 -368898.977953 0.650535 1583936379.089765 0.795760 0.605613
7758576.916938 -368898.717158 0.650562 1583936379.139745 0.795743 0.605634
7758577.258316 -368898.457473 0.650569 1583936379.189733 0.795739 0.605639
7758577.598123 -368898.199072 0.650547 1583936379.239718 0.795752 0.605622
7758577.937075 -368897.941343 0.650494 1583936379.289702 0.795784 0.605580
7758578.275318 -368897.684169 0.650383 1583936379.339673 0.795852 0.605491
7758578.613388 -368897.427241 0.650208 1583936379.389669 0.795958 0.605352
7758578.950825 -368897.170848 0.650002 1583936379.439673 0.796083 0.605188
7758579.287742 -368896.915012 0.649769 1583936379.489645 0.796224 0.605002
7758579.624272 -368896.659532 0.649523 1583936379.539652 0.796372 0.604806
7758579.960467 -368896.404442 0.649229 1583936379.589690 0.796550 0.604573
7758580.295487 -368896.150496 0.648868 1583936379.639616 0.796769 0.604284
7758580.630434 -368895.896696 0.648451 1583936379.689624 0.797020 0.603952
7758580.964179 -368895.644092 0.647988 1583936379.739583 0.797300 0.603583
7758581.297801 -368895.391830 0.647520 1583936379.789561 0.797582 0.603210
7758581.630825 -368895.140325 0.647065 1583936379.839572 0.797857 0.602847
7758581.963225 -368894.889434 0.646658 1583936379.889555 0.798102 0.602522
7758582.295196 -368894.638970 0.646270 1583936379.939525 0.798336 0.602213
7758582.627029 -368894.388821 0.645911 1583936379.989535 0.798552 0.601926
7758582.958145 -368894.139390 0.645553 1583936380.039486 0.798767 0.601640
7758583.288936 -368893.890452 0.645195 1583936380.089470 0.798983 0.601354
7758583.619057 -368893.642127 0.644840 1583936380.139427 0.799196 0.601071
7758583.949027 -368893.394105 0.644491 1583936380.189436 0.799406 0.600792
7758584.277941 -368893.146975 0.644158 1583936380.239400 0.799606 0.600525
7758584.606888 -368892.900103 0.643824 1583936380.289438 0.799806 0.600258
7758584.934569 -368892.654326 0.643494 1583936380.339367 0.800004 0.599994
7758585.262236 -368892.408837 0.643162 1583936380.389365 0.800203 0.599729
7758585.589658 -368892.163642 0.642833 1583936380.439420 0.800401 0.599466
7758585.916122 -368891.919241 0.642509 1583936380.489384 0.800595 0.599206
7758586.242358 -368891.675240 0.642187 1583936380.539388 0.800788 0.598948
7758586.568050 -368891.431802 0.641895 1583936380.589372 0.800963 0.598715
7758586.893296 -368891.188829 0.641653 1583936380.639346 0.801108 0.598520
7758587.218503 -368890.946019 0.641447 1583936380.689354 0.801231 0.598355
7758587.542762 -368890.704082 0.641255 1583936380.739279 0.801346 0.598201
7758587.867304 -368890.461898 0.641071 1583936380.789297 0.801456 0.598054
7758588.190922 -368890.220481 0.640889 1583936380.839249 0.801565 0.597908
7758588.513952 -368889.979563 0.640717 1583936380.889215 0.801667 0.597770
7758588.836510 -368889.739060 0.640573 1583936380.939216 0.801754 0.597655
7758589.158349 -368889.499248 0.640398 1583936380.989182 0.801858 0.597515
7758589.479540 -368889.259939 0.640174 1583936381.039136 0.801992 0.597335
7758589.800175 -368889.021283 0.639945 1583936381.089114 0.802129 0.597151
7758590.120078 -368888.783126 0.639770 1583936381.139032 0.802233 0.597011
7758590.440122 -368888.545021 0.639629 1583936381.189039 0.802317 0.596898
7758590.759792 -368888.307194 0.639490 1583936381.239040 0.802400 0.596787
7758591.078731 -368888.070039 0.639327 1583936381.288978 0.802497 0.596656
7758591.397314 -368887.833303 0.639151 1583936381.338931 0.802602 0.596514
7758591.715300 -368887.597016 0.638975 1583936381.388925 0.802708 0.596373
7758592.032593 -368887.361323 0.638822 1583936381.438884 0.802799 0.596250
7758592.349160 -368887.126147 0.638684 1583936381.488849 0.802881 0.596140
7758592.665363 -368886.891272 0.638546 1583936381.538808 0.802963 0.596029
7758592.981072 -368886.656860 0.638407 1583936381.588779 0.803046 0.595917
7758593.296016 -368886.423079 0.638265 1583936381.638728 0.803131 0.595803
7758593.610652 -368886.189613 0.638089 1583936381.688692 0.803236 0.595661
7758593.924519 -368885.956738 0.637912 1583936381.738668 0.803341 0.595519
7758594.238018 -368885.724309 0.637692 1583936381.788618 0.803472 0.595343
7758594.551427 -368885.492087 0.637420 1583936381.838580 0.803634 0.595124
7758594.864915 -368885.259943 0.637132 1583936381.888543 0.803805 0.594892
7758595.178306 -368885.028002 0.636859 1583936381.938466 0.803968 0.594673
7758595.491926 -368884.795962 0.636584 1583936381.988472 0.804131 0.594452
7758595.804436 -368884.564939 0.636289 1583936382.038377 0.804306 0.594215
7758596.117163 -368884.333904 0.635920 1583936382.088378 0.804526 0.593918
7758596.429448 -368884.103256 0.635646 1583936382.138304 0.804688 0.593697
7758596.741559 -368883.872999 0.635294 1583936382.188265 0.804897 0.593414
7758597.053954 -368883.642613 0.634924 1583936382.238183 0.805117 0.593116
7758597.366787 -368883.412144 0.634531 1583936382.288209 0.805350 0.592800
7758597.679454 -368883.181921 0.634121 1583936382.338156 0.805593 0.592470
7758597.992617 -368882.951559 0.633688 1583936382.388086 0.805849 0.592121
7758598.305679 -368882.721464 0.633272 1583936382.438025 0.806095 0.591786
7758598.619677 -368882.490904 0.632852 1583936382.488025 0.806344 0.591447
7758598.933372 -368882.260777 0.632414 1583936382.537911 0.806603 0.591093
7758599.247942 -368882.030186 0.631973 1583936382.587872 0.806863 0.590738
7758599.562845 -368881.799539 0.631530 1583936382.637785 0.807125 0.590380
7758599.878560 -368881.568551 0.631081 1583936382.687752 0.807390 0.590018
7758600.194682 -368881.337463 0.630613 1583936382.737715 0.807666 0.589640
7758600.511257 -368881.106373 0.630056 1583936382.787691 0.807995 0.589190
7758600.827732 -368880.875516 0.629530 1583936382.837592 0.808304 0.588765
7758601.145409 -368880.644082 0.628999 1583936382.887565 0.808617 0.588335
7758601.463367 -368880.412656 0.628464 1583936382.937512 0.808931 0.587903
7758601.782481 -368880.180627 0.627916 1583936382.987522 0.809254 0.587459
7758602.101763 -368879.948764 0.627338 1583936383.037479 0.809593 0.586991
7758602.421560 -368879.716849 0.626700 1583936383.087448 0.809967 0.586475
7758602.741630 -368879.485034 0.626025 1583936383.137408 0.810363 0.585928
7758603.062060 -368879.253313 0.625283 1583936383.187417 0.810798 0.585326
7758603.382412 -368879.022045 0.624417 1583936383.237396 0.811304 0.584625
7758603.702579 -368878.791331 0.623434 1583936383.287386 0.811878 0.583827
7758604.022854 -368878.561022 0.622295 1583936383.337367 0.812543 0.582902
7758604.343522 -368878.330999 0.621023 1583936383.387407 0.813284 0.581868
7758604.663961 -368878.101772 0.619658 1583936383.437364 0.814077 0.580757
7758604.985523 -368877.872434 0.618212 1583936383.487355 0.814916 0.579579
7758605.307924 -368877.643240 0.616721 1583936383.537342 0.815779 0.578363
7758605.631185 -368877.414216 0.615223 1583936383.587329 0.816645 0.577141
7758605.955221 -368877.185355 0.613758 1583936383.637311 0.817489 0.575944
7758606.279525 -368876.957072 0.612292 1583936383.687273 0.818333 0.574744
7758606.603870 -368876.729396 0.610809 1583936383.737236 0.819184 0.573531
7758606.928268 -368876.502469 0.609289 1583936383.787218 0.820055 0.572285
7758607.252092 -368876.276639 0.607634 1583936383.837141 0.821001 0.570926
7758607.575306 -368876.052151 0.605672 1583936383.887081 0.822120 0.569314
7758607.897808 -368875.829185 0.603301 1583936383.937038 0.823467 0.567364
7758608.220287 -368875.607427 0.600468 1583936383.987017 0.825071 0.565029
7758608.542074 -368875.387564 0.597173 1583936384.036916 0.826929 0.562307
7758608.864762 -368875.168693 0.593443 1583936384.086850 0.829020 0.559218
7758609.189467 -368874.950296 0.589439 1583936384.136847 0.831253 0.555895
7758609.515136 -368874.733148 0.585284 1583936384.186794 0.833555 0.552436
7758609.842172 -368874.517059 0.581067 1583936384.236758 0.835878 0.548916
7758610.169887 -368874.302499 0.576846 1583936384.286722 0.838187 0.545383
7758610.498113 -368874.089609 0.572665 1583936384.336710 0.840460 0.541874
7758610.826857 -368873.878300 0.568542 1583936384.386690 0.842687 0.538404
7758611.155784 -368873.668823 0.564514 1583936384.436629 0.844849 0.535005
7758611.486324 -368873.460154 0.560640 1583936384.486704 0.846915 0.531729
